ply
format ascii 1.0
element vertex 1600
property float x
property float y
property float z
end_header
29.615145 -17.890645 -25.370161
1.008443 -13.871458 12.883679
31.127537 21.825912 -27.914437
34.526615 15.927267 -26.824339
37.539140 19.741742 -25.463465
31.991286 -20.687813 -29.317330
31.250455 -20.589964 -29.421265
34.740517 -18.925322 -30.739025
34.575869 -21.561123 -28.254904
28.103490 3.978170 -27.412608
32.730150 20.196766 -29.810796
30.642155 21.568785 -28.271289
35.260851 17.729310 -25.093851
27.983728 13.176458 -29.944661
27.974105 12.404598 -29.402660
12.488152 0.501682 5.911124
28.058031 -17.374178 -30.213025
28.039445 3.702409 -16.199915
27.956772 -22.524839 -25.765090
35.496769 23.402739 -22.331727
30.453714 5.802083 7.710453
30.581986 18.279297 -24.045730
30.742679 -16.411691 -19.114028
31.051640 10.892516 -19.403041
35.179005 21.682904 -28.038774
31.405632 22.862562 -25.749494
28.232573 14.395658 -27.584949
30.529652 -9.532296 -21.968123
31.226964 -12.967062 -18.376806
28.018789 15.591210 -29.085935
28.353036 17.423774 -31.158104
-36.280089 -18.411909 1.521979
30.716565 13.441275 -27.161431
28.434037 12.411971 -26.823719
-3.145299 13.238942 10.572565
36.172548 -10.217946 -25.130227
35.579302 -16.977042 -19.260069
31.416329 13.405667 -32.118104
4.916222 -10.732856 23.607613
29.704567 19.045052 -30.843413
-3.711619 14.028774 7.633109
31.743736 14.461757 -27.142420
34.431722 -13.255707 -27.174512
34.664028 -18.476552 -22.599990
36.066618 14.486057 -27.071963
37.383122 17.566299 -27.595659
28.203087 -18.077701 -30.330869
28.390161 -21.679474 -27.369021
29.995937 16.347982 -31.797523
29.723321 16.616663 -31.740273
29.684837 17.161209 -31.635589
34.814007 18.414285 -22.798993
28.023654 18.132376 -27.356870
28.032725 17.501247 -28.248938
28.415850 13.905093 -27.094228
28.013115 13.093004 -29.267651
35.341299 -11.695980 -18.955176
34.177535 -10.134979 -20.771481
32.383566 -18.324516 -21.991199
31.957660 -13.592705 -27.204241
33.754270 11.566714 -26.340892
32.038873 11.623894 -26.407390
37.289936 16.099235 -26.056367
36.307640 17.696778 -25.072620
37.449586 -17.282121 -11.669216
37.410228 -2.961358 -25.381464
28.287075 16.170113 -27.273674
30.798097 11.233822 -19.156683
34.553307 23.409065 -22.712806
30.924519 22.907475 -25.615169
32.670696 22.879754 -25.646014
32.058654 22.849868 -25.748154
35.936392 -22.046703 -27.574628
35.180219 -18.949802 -30.698220
28.100876 -19.053700 -22.027180
28.434968 -12.948865 -26.939293
28.065991 2.427442 -23.148527
10.949249 -6.000099 20.947560
30.660292 17.334416 -25.797280
28.038223 -15.181614 -28.720745
28.064429 -20.290046 -23.770720
31.178322 21.585185 -28.258480
35.934188 20.368656 -29.577857
35.298202 9.838103 -21.551498
28.066046 6.965352 -27.833837
34.327804 17.481290 -19.793909
32.580432 18.434007 -23.604566
33.277530 23.382174 -23.691880
33.818674 23.376436 -23.675353
-14.771903 -2.421561 9.974850
28.089633 5.430876 -24.149589
32.159406 23.407621 -22.974537
31.428815 -12.501107 -32.190091
31.402941 -23.457006 -21.769619
36.599922 15.254317 -31.806723
37.442501 15.429147 -30.908732
28.255484 11.977686 -31.847575
37.511685 -22.554072 -8.368011
37.557817 -1.032699 -31.374739
33.933683 17.214422 -31.496652
33.793712 11.721102 -26.461670
28.035937 7.742645 -29.841952
29.698676 -23.409746 -15.527433
30.248435 -7.475482 -32.147250
33.766587 -23.061364 1.397914
34.295669 10.306238 -32.106029
37.410526 -21.345582 -15.742164
37.429913 -7.781104 -30.953911
31.860629 -16.561078 -19.141447
31.404866 -10.599632 -25.542050
28.526798 -10.323252 -25.277640
28.518400 -16.905541 -19.357055
29.869017 17.160477 -25.962890
29.902808 -9.940052 -20.846850
30.112726 -11.718862 -18.927199
37.548948 19.282872 -26.591198
37.523921 -9.393132 -10.680826
37.411093 -2.032645 -17.012346
29.339950 23.534122 -23.925713
28.175530 8.403216 -8.590565
28.025948 9.654243 -27.339373
32.708513 -15.315123 -32.149347
32.325118 -23.314570 -23.694467
28.777286 -9.740290 6.173521
29.118807 22.466368 -26.766488
29.577022 22.149244 -27.356482
35.694029 -19.254593 -30.498283
34.882027 -21.817589 -27.902710
36.795528 -16.511825 -31.542424
36.522260 -23.084859 -25.508516
28.056904 19.995576 -29.330434
31.487094 18.387333 -23.797514
28.072516 9.812970 -26.626026
28.061565 10.312953 -26.942369
32.669375 -11.853538 -18.901275
31.359354 -10.254234 -20.411985
-30.861281 17.731519 0.236761
35.973260 18.414379 -23.137564
37.378101 18.958114 -21.677244
37.487972 20.334918 -22.078864
37.544209 11.751552 -28.632933
36.145707 10.031088 -24.517791
37.249533 16.622278 -27.359643
28.028863 -21.394528 -25.588767
15.584552 -23.407486 -5.303809
28.169695 -16.853229 -29.379549
29.986404 18.728052 -30.992587
33.977402 18.346041 -22.217042
36.027071 13.787606 -27.122442
36.509907 14.752575 -26.979218
27.938706 14.285693 -31.355869
29.940026 17.434908 -25.650873
35.544676 18.414915 -22.702458
37.542885 -8.020718 -10.722631
37.437019 -1.038856 -17.789496
-32.357451 22.484578 -6.468417
28.127858 -12.655932 -30.951924
28.094982 -22.461998 -21.462037
37.460353 22.416900 -23.502152
12.150204 -0.584037 5.531418
28.811853 9.758975 -21.327914
33.430126 10.058937 -20.656467
28.129055 1.263992 -27.585553
35.430258 10.678994 -19.762864
34.672035 -23.482230 -17.037657
35.296155 -7.994947 -32.079613
35.024354 -23.353936 -19.835329
35.143362 -11.745129 -32.093355
37.122767 -23.193417 -14.667961
36.179261 -6.303682 -32.111816
30.807400 14.651223 8.177858
37.435256 18.236697 -27.140305
28.099503 6.279449 -25.020431
37.361702 -16.353069 -31.269759
37.516050 -22.239073 -24.886350
28.084307 -19.822191 -27.946868
28.428173 -18.932701 -29.867702
27.988268 19.609097 -29.598494
30.923956 17.078418 -26.080109
31.104467 16.858022 -26.276137
28.045964 13.881450 -27.280411
29.679538 11.995137 -32.133317
37.582923 -22.336708 -7.863283
37.133082 1.077596 -31.360429
32.560739 -20.237106 -29.716294
33.290077 -21.354749 -28.576599
31.825888 -17.716633 -25.436966
31.659531 -16.795176 -26.267090
32.855240 19.015599 -30.715420
32.531508 15.578856 -26.962378
37.190506 13.637443 -27.558394
37.544176 12.616175 -30.047171
37.490420 15.678422 -29.733370
-3.048565 13.121011 10.956329
35.907722 11.187544 -26.106692
37.410471 -16.723063 -17.666261
37.404986 -9.136495 -25.880398
36.185894 18.246079 -24.424825
28.174671 -18.054698 -18.306335
28.034694 -10.614275 -27.602468
28.051899 7.041652 -28.705947
35.836546 15.033693 -31.911364
36.631296 19.616847 -30.228358
28.199743 13.651028 -31.976890
27.942945 11.579271 -30.489216
28.084029 12.154053 -31.719257
31.718770 12.794508 -32.118796
32.306390 -18.244814 -21.630848
32.085290 -12.457381 -27.057435
30.583747 -11.754842 -26.649045
28.035523 15.912304 -28.441597
1.077954 4.144844 25.293463
27.969353 15.674208 -31.179105
37.584283 -22.535213 0.106160
37.483649 8.921991 -31.337138
10.645235 6.101766 20.301453
37.509841 14.768985 -30.681997
29.778479 -22.120508 -27.482270
29.479300 -18.887080 -30.674694
37.464415 -18.249125 -30.779774
37.552111 -21.557764 -27.196664
35.979042 17.259722 -25.583131
32.993140 14.185113 -32.076647
37.483457 15.944575 -29.989488
-6.688180 -5.265513 17.165188
-9.498335 -5.589101 13.995522
37.387100 15.798797 -31.038247
2.638592 -5.725245 13.207467
28.870093 13.120023 -32.209952
28.074406 -21.392076 -22.378055
28.084043 -13.258031 -30.453912
33.475671 15.485238 -31.895133
30.616603 -23.326999 -23.765337
30.827305 -16.186378 -31.903985
2.556654 -12.316643 18.456229
27.989572 9.656972 -28.937039
37.420356 12.511991 -27.650340
31.972861 12.984041 -32.113833
34.668326 -18.462821 -30.982580
35.087487 -18.367103 -31.024589
34.784999 -22.301011 -27.182336
2.569102 6.462969 11.677736
29.806525 20.322534 -30.105480
28.398951 -23.271385 -15.759426
28.130125 -6.860878 -31.523364
28.037414 12.755050 -28.505336
37.457084 13.906488 -28.756853
28.100009 3.047232 -30.826403
34.879999 20.409911 -29.501424
33.747931 19.503505 -30.402478
34.889050 10.811622 -32.119888
12.246787 -2.844411 25.439406
34.120679 23.275853 1.069098
23.431204 12.223653 8.140484
37.564300 -21.194220 -3.703823
37.506499 3.887514 -29.310991
37.461673 -20.668314 -12.556340
37.511257 -4.688584 -28.865492
33.448291 -23.492598 -16.716652
33.055282 -7.905359 -32.129126
31.675537 -23.432879 -2.268468
31.452298 6.048610 -32.137780
37.040632 -23.404181 -2.046432
36.986239 6.535636 -31.931452
-22.251608 -5.304394 1.720611
-14.542905 1.643788 10.541208
-19.261419 1.386355 5.702256
-26.955328 4.582960 1.583401
-6.836645 -7.134597 15.652334
20.857894 -1.262738 14.565660
2.895813 -2.069853 27.667104
23.027115 7.741831 16.073135
10.825087 7.939230 28.375467
4.555610 -2.125229 18.252505
-15.846636 -6.768232 6.993327
-2.011891 4.998152 21.784622
-3.970399 4.701415 19.866098
-32.459114 -13.145469 -1.093064
6.390501 -6.135456 16.166146
-20.411350 -1.821144 4.551183
10.110079 23.435760 0.803397
25.861743 -14.578938 11.214963
-20.264394 3.315104 4.245972
-19.323010 11.246001 1.672825
11.707573 -3.802721 27.668558
4.344711 -14.786718 11.588410
7.270815 -14.982631 9.873053
9.980181 -11.750878 27.444129
5.685022 -7.356193 9.052563
17.341393 6.549221 16.779410
14.872906 -2.567774 9.118556
14.598356 -0.915051 8.275802
-1.313117 2.369174 23.552706
-1.316141 -0.404867 23.744114
-4.829837 -0.965674 20.229040
-7.312674 -1.211078 17.865472
-2.839707 7.840331 19.090562
1.812770 -5.272216 12.956823
2.321410 3.802172 26.644519
4.143173 8.101792 25.847832
3.910892 -9.902935 23.696306
5.983968 -8.493758 27.233633
-25.668409 -17.795076 -0.703989
4.331759 13.555934 17.113940
-25.600373 10.361789 -2.898021
21.021956 19.267891 1.648527
-7.147999 11.898532 9.802793
14.689499 21.890145 -7.828676
15.048123 -15.085701 2.307090
6.247982 -2.592237 31.028367
8.723891 4.825722 20.542493
2.100747 3.341666 15.223289
5.968852 3.949291 18.473955
8.313483 5.487172 18.995073
13.068733 -6.389883 26.104127
12.485433 -3.112719 26.746178
10.750349 -13.052831 25.193893
10.952443 -11.921700 27.804478
-12.000112 13.412628 1.846728
9.015091 -1.480513 3.680060
11.702221 2.135017 5.589734
14.062775 5.493068 24.171748
-8.077225 1.628930 16.904773
3.369670 7.006141 26.019608
13.831280 1.572758 -7.705274
-3.768916 -4.075038 20.527525
6.574018 -6.783764 13.913212
-17.556009 2.772826 7.166134
11.573864 -14.995311 13.837477
9.335140 -14.814138 16.294584
-23.826826 -12.207869 -7.403355
11.311210 14.961568 6.085392
10.715933 -6.567383 9.999456
10.100451 -7.131352 16.410461
-3.946450 5.831902 19.283674
13.222094 14.957413 9.966961
-35.458886 -19.866542 -1.908740
-34.364960 -21.070453 -2.734467
-12.477689 -2.716070 12.160138
10.483925 -1.910554 4.479531
-2.020242 -11.250075 15.945570
23.133113 14.843207 15.254674
13.729080 23.380650 -6.559992
3.389570 6.470271 12.281697
5.759093 5.626324 16.316726
-11.832327 9.134416 8.900742
-27.640379 9.661238 -0.827866
14.231651 6.593936 13.982229
3.957521 -1.002521 8.532845
3.100929 -0.723868 9.391001
15.141914 6.930173 21.873894
-7.817404 -2.326350 17.148243
-9.912163 -1.835630 15.045747
21.820396 11.087474 17.431546
12.096836 11.142686 26.944161
21.532881 4.172214 16.283280
16.406301 -6.961564 17.462319
-21.060077 6.473323 1.834953
20.329404 0.905085 13.977948
7.271911 -1.601125 21.216285
-19.286699 -6.732971 -7.642518
-20.826979 -6.069034 -7.666659
13.905195 -0.524501 7.621598
-2.087159 7.523512 20.090455
-28.473220 1.893530 -7.785232
-12.550298 -14.549209 -7.721748
9.395220 -0.154760 3.633527
-1.774247 -7.236021 20.625820
-23.330214 -13.246563 1.304147
11.296044 -14.982146 12.221313
-26.296503 7.013992 1.635681
-1.555644 17.882471 1.601378
20.850526 19.608181 1.656317
5.655254 7.110532 28.377141
-0.660852 1.141595 24.378073
-2.269905 -9.072491 18.445703
2.574705 -4.788563 14.225194
-15.663479 -3.262258 8.976160
3.711809 -8.905460 24.568298
-14.294977 -10.530627 4.336993
24.177894 -12.285824 15.022585
1.327962 -13.795605 -7.698316
22.432208 -1.684410 16.304397
-15.357723 -0.897709 9.568236
8.415617 -13.775060 20.712031
18.807477 14.826231 5.357293
2.552501 12.162226 18.563853
8.091934 13.538403 20.894060
7.113727 12.272358 23.101474
0.178172 -1.284640 25.162672
16.004018 -3.217661 10.576616
19.405568 -6.497360 18.585801
-20.952281 5.732268 2.369009
-6.841449 1.921692 18.057705
-10.708921 -7.125546 11.772832
1.335469 -13.001506 15.766242
29.775828 6.374761 7.279753
23.837735 10.113929 7.191651
11.746832 12.666111 26.758460
21.937052 12.437969 17.293115
-10.924365 -9.953930 8.807631
20.763527 23.434065 -6.331791
25.649461 5.582700 11.007702
-7.800091 -10.964083 10.424422
16.754089 6.047552 15.120010
10.536842 -4.360407 22.720811
11.215159 -4.689910 23.143226
-16.188035 2.757855 8.602185
-3.636600 16.443676 1.573011
11.039238 -6.601515 19.128532
-1.479912 -8.895764 19.433967
14.316933 15.009949 2.746204
4.564536 14.321111 15.172402
8.544947 14.522181 17.728965
7.660806 4.389152 19.924253
-17.392917 10.043184 2.199078
12.776214 15.797397 1.433435
15.880793 -1.971882 9.755247
-3.493582 2.406700 21.288282
-6.284138 5.922673 17.002059
6.708321 12.959510 21.009582
7.662499 9.317802 28.170968
-2.427857 -9.267134 19.788761
6.800559 -14.911065 5.848089
19.710746 15.107114 1.986415
24.197573 -15.124202 12.916083
4.783754 14.587873 14.134362
-15.288657 10.721103 3.182469
-20.184651 13.402509 1.606647
-32.513496 13.643333 -2.606406
11.945405 2.882283 25.454579
3.750732 14.940917 2.949041
-25.681775 10.234608 0.129685
15.213236 -4.108750 10.432643
-32.495814 13.459976 -1.760643
-23.763702 13.962432 -3.715984
-11.161521 12.930728 3.343766
-13.730210 -8.683709 7.335485
-12.839069 13.418674 1.673929
-31.918245 11.856007 -5.224729
16.083235 4.917167 12.245826
13.475091 2.807736 7.703394
7.372952 -14.981839 8.515887
4.671495 3.152969 29.367191
1.836092 4.007728 26.069928
-13.880240 -10.167555 5.350982
-0.860534 -7.207689 21.593116
5.557571 -0.670645 30.746396
5.427168 2.874673 30.250477
2.918173 11.306012 20.515260
10.024531 -6.385692 8.632065
13.948982 23.381538 -2.181364
10.127947 -10.260199 28.730497
1.452236 -1.171393 26.348785
4.068835 -9.075602 24.755545
-22.556193 -2.022280 2.544548
9.773676 -14.990710 8.752426
-4.939116 -4.691121 19.113320
6.234335 -23.497130 -1.602834
28.761142 -14.302349 6.205767
-12.190657 9.005425 8.688892
-37.001288 16.938162 -2.284264
-10.044625 -13.241520 3.793653
-34.804111 20.416555 -0.565014
-29.218226 18.387130 0.169625
26.553122 5.902584 12.147949
-29.592227 18.170375 -4.240815
-29.259823 18.293161 0.446924
30.677947 -5.858785 8.086108
16.772935 13.255372 -7.785284
9.775917 1.799759 23.589706
-14.450230 2.608146 10.334244
-22.584315 4.338928 1.722804
-2.123689 -11.993702 14.553490
10.722288 -1.312011 4.461346
-7.900471 1.203639 17.156415
-5.302410 -6.571872 17.539308
-2.587827 -7.282177 19.780893
-19.895635 3.259279 4.625766
-19.927585 7.268255 2.472314
-6.479013 -9.939784 13.209439
-11.959450 -9.272097 8.604320
-0.134798 1.203585 14.396742
10.200179 6.451368 19.017850
-14.009485 3.274144 10.565495
9.179162 6.982383 9.829645
-25.020806 17.376710 -0.706935
-14.473275 -10.207594 4.683458
-18.209484 -7.716245 3.783690
4.567395 3.705613 17.277357
26.565124 4.274508 11.722886
11.530775 -0.126294 4.943509
23.426616 14.676008 8.953258
-13.757148 5.923028 9.623010
24.426439 7.458672 9.875247
-16.696111 2.664629 8.106091
-10.067116 0.324628 15.098491
-8.675844 1.645269 16.354273
20.752853 -0.803513 14.281733
22.209741 -23.521648 -1.696304
26.005013 12.855834 11.607678
19.929100 -23.405742 -5.102711
24.124667 17.090414 -7.747060
30.007303 23.385356 -4.654060
-16.553609 23.471438 -6.496110
26.052076 13.628448 13.060621
17.531501 -14.989388 8.825365
21.318306 14.971299 13.255683
23.357300 -0.298394 8.531064
21.012319 14.872730 5.427334
-31.701535 11.381560 -5.519455
17.539640 6.369240 16.577046
-15.772682 16.674493 1.605890
3.282086 2.795916 16.663220
-8.750472 -10.385672 10.334064
-10.329887 -8.636258 10.813681
14.492267 -18.822786 -7.762951
8.588139 6.746282 8.189284
5.256241 -14.895757 5.615572
12.991168 0.125866 6.661958
-9.314351 -8.303056 12.058074
-0.501513 -16.440591 1.514749
8.381517 -19.530978 -7.796615
16.819095 5.441331 13.903509
4.398110 6.480162 13.028834
-31.654431 -11.374773 -5.438742
27.482146 6.646624 -7.696526
10.796812 -11.202271 -7.786307
4.585562 3.432160 17.555130
24.960033 -15.105526 11.686933
-36.775020 17.606041 -3.827049
-4.838273 -14.494201 3.311482
12.219366 7.024263 13.267671
23.274447 -15.034193 6.257922
-31.302926 10.806134 -6.172814
18.288057 7.705787 20.929388
15.778635 7.184177 23.109866
6.790343 23.359714 -5.881911
19.106540 14.824401 5.015158
9.957314 5.713600 7.382538
-24.666413 16.891619 -1.329147
20.378488 14.885354 17.384974
23.900489 -14.955395 9.976992
33.540197 23.436988 -14.523518
21.993437 -18.167532 -7.778213
15.799652 14.101970 -7.730890
29.082443 14.078328 6.502295
36.214334 10.078353 2.999578
21.558676 1.737389 -7.711067
12.055075 -12.659030 26.689360
11.276208 -9.151999 -7.795245
23.512214 -6.403298 7.636635
-24.679393 17.607547 1.542321
26.223396 -14.979008 2.072361
5.753259 -23.475558 1.151007
4.264001 -23.446726 -0.998692
11.299941 -23.172942 -7.470941
-36.726196 17.161250 -7.548773
5.374703 -1.371019 -7.715947
-16.703982 19.031929 -7.664815
14.900183 -22.502200 1.587880
26.159987 -23.461101 0.781902
34.360926 11.665429 4.866159
33.581646 11.434826 5.616813
24.338710 9.567614 9.771454
24.796134 11.431358 10.202298
22.004521 -22.432439 -7.794880
27.982713 0.659262 5.424682
35.314541 17.071621 1.725444
-28.202045 18.430752 -2.090968
14.233498 -23.430571 -2.154092
25.309480 6.598747 10.736533
-0.446876 -15.256176 1.773284
-32.280167 15.795887 -1.341539
12.096455 -20.684793 1.674912
21.614490 23.179015 -7.582725
27.282456 18.117749 -7.768928
31.024622 23.409816 -21.478123
28.123229 0.128803 -27.982864
28.133538 -18.852447 -9.334051
28.001327 23.520584 0.328166
28.545917 -10.891366 5.965583
28.213205 23.447446 -4.624633
30.205784 -3.019304 7.663525
0.225352 -11.205922 18.193997
28.650058 4.876061 6.045554
22.637360 5.575654 -7.757840
31.590750 13.048785 7.481180
29.431577 13.319024 6.905589
33.127423 22.754519 1.594755
28.173585 19.247920 -10.775655
19.722357 -23.495980 -1.582988
27.944120 21.026998 1.673854
15.169772 -5.590146 -7.822374
4.405929 0.986762 8.121906
28.728782 6.636608 6.086691
35.904075 14.219782 4.391192
37.511618 14.452540 -4.868070
33.165469 -9.429519 6.092712
15.351221 -9.197019 -7.701707
24.802583 7.955900 10.230833
28.080253 17.711919 -14.849054
28.727534 -1.297641 6.140169
37.285064 22.868762 -19.743855
-3.502054 0.865986 21.533113
15.249987 11.628696 -7.758134
37.430983 22.929316 -8.382572
33.912247 23.374918 -7.956331
22.220903 -23.479994 -4.641800
30.027845 -1.720447 7.526299
37.531326 17.992830 -12.626938
28.168713 8.135526 -21.966199
37.298621 18.768874 -21.312067
30.488112 -9.624696 -21.706852
28.025408 3.681765 -17.842498
27.557573 9.484272 -7.588023
31.394042 -17.813585 1.649872
35.117489 3.584286 4.099035
37.525687 21.491279 -3.920530
37.521755 18.238765 -3.001260
35.448905 0.661290 3.648753
26.263089 8.883802 -7.643153
29.937047 1.276151 7.286659
28.043473 12.673049 -11.049623
33.683294 12.723680 5.508915
32.497590 -1.570084 6.582561
31.288027 9.292381 8.296017
24.989321 -12.675165 -7.683454
20.100769 -1.265741 -7.651456
37.446701 21.162477 -1.109102
37.460067 12.681144 0.700180
28.100870 17.795126 -14.368511
29.592277 23.292139 -7.406696
37.647972 14.847800 0.678436
31.170645 -3.702914 8.060830
36.278901 -13.748849 2.931625
28.253485 -23.221376 -23.690064
28.124838 1.702855 -27.730906
31.689317 19.161701 -30.638476
34.088425 13.028615 5.112825
34.718486 -3.989243 4.478811
33.816107 1.309886 5.293248
37.105415 -5.860640 1.713960
35.391342 5.720471 3.834250
31.596642 -7.442868 7.606156
34.198475 12.635097 3.512122
32.129145 -0.271666 7.050885
31.497846 23.416676 -20.544115
37.644247 21.901131 -11.252217
35.647743 23.361423 -17.121311
37.448917 22.899773 -15.873561
37.570074 13.299323 -3.694801
34.093259 6.300604 5.101967
37.636459 20.343969 -28.104347
37.235467 15.668605 -27.450492
37.496719 21.175924 -23.219558
28.041421 8.889413 -30.363216
28.217104 11.013885 -26.406429
28.010243 20.471342 -15.655905
30.962155 23.446338 -17.465198
37.574311 -1.431016 -0.954364
37.501948 8.566178 -9.158152
-33.718076 21.653276 -2.023334
32.903189 23.406826 -19.462320
37.554320 18.653086 -18.597075
31.680106 23.465328 -15.814482
28.583135 18.438538 -21.990007
28.053599 8.541042 -17.858737
28.038072 6.781337 -14.646884
28.151177 9.808391 -8.288532
27.949962 16.225541 -30.256920
37.556528 22.668115 -12.680074
37.529225 18.215801 -18.288029
37.571281 -2.087368 -4.129951
37.444167 4.429200 -11.369562
31.514013 22.300449 -27.167047
33.327031 23.435919 -15.885527
29.072382 -15.409008 -18.719674
34.061595 15.042695 -18.430053
31.282504 17.948572 -24.848099
32.084812 -15.146267 -18.262651
34.253101 -16.066463 -18.747957
37.488136 17.249364 -17.398559
-18.923039 -9.122859 1.945861
28.060343 10.478549 -31.362836
33.221675 -11.897801 -26.770290
32.382343 -11.810759 -26.724152
31.039927 -12.047498 -26.957854
37.511566 11.489327 -30.876740
28.102384 4.454472 -31.408460
37.429490 12.117511 -17.661605
37.086936 14.671694 -31.962137
29.423535 14.235011 -27.143697
34.505532 -18.170575 -31.149598
33.784414 -22.287782 -27.192464
33.609837 16.434172 -26.576941
30.800377 -21.853002 -28.017061
30.426985 -18.975578 -30.642523
28.024063 8.349941 -29.162444
30.186994 20.742797 -29.534762
33.335312 10.667847 -25.439671
35.319254 -9.787625 -22.005604
-30.800462 17.915546 -5.891159
28.034939 3.730017 -16.595220
28.801206 21.619581 -28.011593
35.959945 22.324610 -27.241823
37.055131 14.291788 -27.273531
34.529404 22.900789 -25.548734
37.455180 -19.049993 0.090366
37.534490 8.512758 -27.805023
34.269451 -16.376748 -26.488065
3.419149 -9.600606 23.538854
13.789797 -6.763686 21.624977
11.274022 -6.112331 9.311947
-18.110190 -9.031125 2.696136
5.890548 -0.095754 20.085966
5.461976 -6.813043 28.248346
-15.869402 3.446165 8.703720
-20.636977 2.147869 4.200857
6.320367 -13.129709 20.190274
15.277710 -2.778909 9.601834
11.389959 -2.274521 27.831922
6.360141 7.568468 28.719620
-2.741918 2.838013 21.937057
24.392985 -14.831965 14.765315
25.476992 -11.738497 13.737194
28.355225 -17.745184 1.610649
7.973347 -5.727919 18.210784
10.939323 -6.202995 20.345596
4.265605 -0.834049 18.386354
1.463114 -1.940437 26.305139
-30.583377 -17.721206 -2.961433
-32.036199 -15.894396 -2.989058
5.810642 -5.812274 16.106759
0.683508 -3.668299 25.008083
11.242546 15.905204 1.494892
4.762451 23.399023 0.759408
10.125427 22.318505 1.592230
-1.032403 0.325485 24.043773
26.412726 -8.524246 11.746304
6.398372 -5.661885 29.894740
8.925376 -2.225420 30.210649
24.983845 -2.244802 14.317082
1.876447 -1.983239 15.962783
6.963613 2.118542 20.773187
-19.998230 4.404391 4.102575
-20.072223 5.368598 3.598542
-31.309951 10.921723 -1.850003
1.678037 -8.886092 22.557073
13.077764 -5.358196 26.159288
12.711584 -4.140165 26.585322
-25.480758 -10.352535 -5.214781
-24.531348 -11.363621 -4.925714
-1.841762 -14.543584 6.455119
5.054694 -13.254555 18.675282
7.530824 -14.040585 22.340426
13.699345 14.998158 12.988195
2.014722 -5.950757 11.822097
4.833581 -2.055850 7.659736
2.197716 -1.465101 10.307136
7.400620 -7.211291 8.727553
14.138786 -2.056688 8.195954
7.784869 9.150858 28.502578
7.445954 9.052652 28.265245
8.806101 11.359452 26.579610
10.538043 13.152947 24.657238
-24.465118 11.211826 -7.387667
-3.254599 -10.898699 -7.739670
9.169934 -14.274143 19.902007
14.271736 -14.960826 7.257079
17.973648 -7.076713 19.487641
-2.628051 -11.661615 14.809273
-9.419767 7.491587 12.831629
-3.580984 12.311985 12.371815
4.788972 14.050983 16.198768
-11.247297 12.627222 3.831184
4.540966 3.674783 8.040544
-8.988368 -4.373272 15.134650
-15.341830 -6.538566 7.655386
26.426862 -14.776813 12.379326
25.652424 -10.855881 13.505490
-13.305190 -7.848779 8.550567
-5.948028 0.040606 19.285288
21.380638 -13.973826 18.645938
19.462008 -14.799089 19.612982
12.362117 -5.257149 26.903171
21.333779 -5.722848 17.751481
25.893742 -1.631764 11.322255
24.648906 -12.909286 10.088122
-33.679302 21.313447 -7.532708
-12.648825 10.866433 5.705728
-31.796756 11.634710 -5.678934
12.250746 0.004342 26.970481
-3.652907 -14.548992 4.466149
10.368090 -11.253687 28.159742
8.571454 -11.199799 26.656993
15.159850 2.504829 9.300243
13.768565 -1.283378 7.608696
13.425482 5.149183 9.903365
11.532281 2.204800 27.532658
13.147288 5.129662 24.218458
-19.484684 -6.685761 3.278723
-9.297412 1.754370 15.791348
11.094303 14.145211 21.767949
1.784145 12.716626 16.840278
-0.806511 9.606514 19.324739
6.379754 13.375456 19.633717
8.102548 11.344655 25.943082
5.985740 12.370297 21.685116
10.645586 13.968012 22.067081
7.736619 13.246108 21.335158
18.435806 2.869857 12.762572
-24.498322 16.570417 -3.768703
-24.828713 17.031369 -1.947516
7.329590 -6.575698 16.153404
17.049623 -14.998931 10.638397
-19.846265 6.968169 2.776423
5.998468 -9.873533 25.823209
29.144883 5.117905 6.591188
17.853190 -15.037617 16.797083
15.316741 -6.769671 23.097960
14.223338 -4.248981 9.548118
13.249541 -0.758619 7.042553
-2.987974 1.748665 21.996033
2.545148 7.074545 25.140403
10.403255 -4.501814 22.406121
7.824820 7.281337 30.374519
-0.983279 7.367633 21.345657
-0.438493 6.919870 22.293023
2.356533 8.747695 23.459923
4.052343 -14.576382 13.070838
-5.682968 -2.661072 19.101467
3.494659 -3.884336 16.143984
7.754005 -5.921379 17.672888
9.391665 3.870878 22.029927
0.574318 -6.996104 23.109123
-21.401588 -0.071487 3.743628
4.228659 23.356776 -6.011911
-7.554170 -5.538401 16.156824
9.507953 -4.418319 21.539353
12.021216 6.222203 21.181352
10.181579 -1.067362 24.272564
5.089484 -14.658586 13.520514
-10.259774 9.883692 9.559420
10.875941 15.354841 1.701450
19.055152 -2.290885 13.188861
24.316917 0.313537 14.987580
9.304761 -0.250515 29.793757
-2.025341 1.156999 23.064526
13.784483 -6.194945 12.305934
-11.395118 11.715820 5.484695
-12.046211 -12.161814 4.048151
25.991447 20.542413 1.666326
-13.387397 -8.638432 7.741576
24.005118 -10.234233 9.381663
-12.436340 -2.253714 12.311706
18.241126 14.840376 4.457062
13.614366 5.654063 10.840007
10.539194 -0.365284 4.185443
-2.042954 -10.827781 16.569422
-15.351530 -11.646486 2.026035
10.762086 -15.268847 -7.787811
26.451096 -12.726495 11.836736
-12.021932 -7.119313 10.467387
-14.584840 -5.356926 9.040253
21.554515 14.900765 4.889587
7.182648 23.372223 -4.477529
10.454162 23.380357 -6.440529
6.395669 2.249794 6.167134
0.827944 1.606152 11.745570
-11.703436 7.146386 10.817141
-10.879129 8.050796 10.898957
-22.295066 18.938450 1.579089
-31.500092 17.275449 -6.930412
-32.414232 13.316717 -5.875940
1.710790 -0.744932 10.869458
6.632685 -2.179317 5.946869
0.716507 -1.810079 11.944152
10.902282 4.162420 6.001120
7.208281 5.621943 5.154470
-8.159338 5.349380 15.489217
-4.348527 8.979732 16.469996
-1.118337 10.264563 18.265907
-1.458516 11.284972 16.184883
11.476771 14.361345 21.107454
-23.952556 15.515832 -5.850748
-25.049585 17.186710 0.130209
-24.827015 16.989863 -0.645659
-37.471110 -14.799407 -3.134086
-28.044143 -23.432266 -2.101254
10.489974 14.964730 2.225609
2.657403 -6.885734 25.258959
16.565157 -15.046379 17.290857
-0.832245 19.360437 1.622498
4.482176 9.659393 24.512238
13.690929 -7.003665 20.487426
21.229075 -14.886870 4.872856
19.537948 -14.814285 4.203533
6.291083 -5.343043 17.180942
-29.552718 -18.357137 -0.094315
2.386321 13.433055 15.636068
11.629113 14.589498 19.766881
3.451377 -2.882214 16.875150
10.476960 3.012217 23.626068
-16.572936 7.632647 5.396495
11.137445 0.407393 25.513671
-24.440244 -16.566473 -4.325779
-1.109635 -14.560532 6.998267
-1.922039 -12.407193 13.817495
3.148932 -13.071377 17.447118
12.201379 -3.237323 6.776914
-2.899411 -1.132939 22.109529
-3.457835 7.755178 18.548605
18.727446 -5.411636 15.648549
20.234577 -4.424032 15.919028
-4.232754 -8.916578 16.623384
-4.539272 10.999688 13.619440
4.108702 14.148811 15.308566
17.314485 14.954603 12.310951
-7.142994 -1.462311 17.971658
20.655057 15.247771 1.808385
15.595193 19.482408 1.616845
23.707191 -13.080210 15.528172
17.794512 15.225525 1.899565
10.416168 23.392934 1.087403
1.797159 -0.019508 16.139510
5.480736 6.437067 14.447040
11.022138 -2.843624 5.029727
10.857331 12.674812 26.146708
3.573710 12.521887 18.720161
5.126060 -9.881830 24.966027
12.262028 -6.377975 21.203976
-9.605392 -7.471895 12.552525
0.002585 0.307626 25.027077
12.888799 -1.917132 6.908868
-10.669113 6.259248 12.441645
-3.995384 6.572982 18.802683
5.893040 10.869894 24.488464
-3.244571 14.672107 4.898507
-2.138029 -8.716734 18.921370
0.590112 -1.548193 25.524766
9.920618 -4.419000 21.989129
-23.914584 12.276919 -2.163986
2.985038 -0.116051 9.537155
8.925104 -13.363874 22.349622
9.486500 -0.173161 23.802161
-10.322491 -11.911337 6.330811
29.568720 -9.358659 6.698290
12.531722 -2.089895 6.622466
-36.473028 -18.350446 -4.114315
-32.540942 -22.341905 -3.668217
23.120356 14.904801 9.157951
-11.676616 0.157398 13.416514
9.300694 -18.381152 1.640843
-36.771214 17.448294 -0.836552
4.951540 7.490919 8.624153
28.450028 15.422697 1.776948
27.244140 -5.310504 4.797885
5.194610 6.611646 13.297666
6.395265 6.699926 14.112898
-12.102948 4.991629 11.775845
-31.734935 16.608870 -5.861914
-5.847874 -12.338799 9.990926
-7.816855 -11.488370 9.519425
11.243880 6.959701 11.680432
6.304134 7.044769 7.502823
11.476019 4.550207 -7.706925
-25.520783 23.628411 0.836188
12.658874 -6.791983 12.996157
12.480400 14.938802 5.536842
6.362682 14.091338 17.414702
17.649428 -2.638597 11.921606
4.185370 -1.862830 8.278780
-0.441155 6.430575 22.613207
-5.699961 4.370021 18.360524
-16.007455 -9.266826 4.375752
21.780683 -3.510089 16.765255
21.851060 -2.807326 16.415617
0.020790 -8.465452 21.283811
22.141051 -13.282029 17.157674
14.059051 -1.102147 7.818879
11.014132 2.150828 28.004782
0.005714 11.489220 17.598234
16.735208 -5.148737 13.079279
11.389364 -6.655969 19.286104
-14.286889 -3.499464 10.158924
3.902779 23.369438 -6.321935
13.536019 19.978753 -7.834680
9.642290 14.476225 18.850485
0.751987 -1.845091 14.836068
-13.866352 5.342447 9.859221
-14.560307 5.716678 8.938178
-15.593504 7.808884 6.312344
-15.419480 12.882718 1.659506
-29.739585 9.488134 -7.472008
12.034669 -1.006058 26.520959
-2.634797 -13.642224 9.844319
3.325337 14.623152 11.383221
4.226821 -12.104308 20.524145
1.918248 -11.830051 18.720801
-0.704550 23.350889 -4.296760
10.032717 -2.810622 4.151532
4.923586 11.366457 22.646553
8.890274 13.961551 20.419929
19.134336 0.524328 12.696140
-4.288471 -2.617942 20.451854
-17.315737 8.789722 3.573028
15.346570 -4.798747 11.297901
6.045997 1.480970 31.101774
2.548600 13.860256 14.634745
0.262613 -8.941661 21.057975
-3.185377 4.172470 20.951262
-3.493679 13.562238 9.344732
23.570166 -11.622543 8.878922
1.522197 14.495245 10.248778
10.824493 -0.932827 24.993089
6.415480 -14.215762 17.029004
11.463642 -4.877331 7.592282
12.386825 -6.412457 11.385297
-12.746470 11.638919 4.246538
24.893937 -4.095572 10.178653
25.203494 -12.585144 10.525813
-12.751653 0.122932 12.349715
-32.543189 14.268144 -3.352685
-23.688843 13.004396 -5.531656
-14.290088 -5.231018 9.387216
7.425967 3.520087 20.497806
-6.978436 19.671387 1.598553
13.889624 5.939987 11.762600
9.710820 3.941563 4.683509
-9.894840 1.894047 15.256471
6.942087 13.483624 19.913603
23.946243 -15.111957 14.681833
5.761680 -6.794093 13.031809
0.486091 -6.541552 23.338097
-0.163587 -6.991835 22.448013
-25.414801 4.251676 1.582961
18.354608 -0.446013 11.737778
20.027830 -3.094569 14.709568
3.227472 9.653939 23.331271
8.483255 -7.996016 29.945744
20.596198 -4.703405 16.584300
10.067381 -5.567293 20.853478
2.139033 -14.528656 -7.690079
-6.670297 11.702854 10.619306
3.621309 -0.030714 17.838963
3.272019 -2.779935 27.925414
3.065275 -0.267205 28.071400
-14.898703 2.577346 9.925851
-15.861189 2.871439 8.895195
-17.734731 8.971627 2.979951
15.978618 -1.401684 9.572965
-2.410793 4.355127 21.682287
8.851933 -10.118152 28.394265
-7.064262 -7.117560 15.446716
10.335953 7.043651 11.046953
21.216045 14.833071 17.505267
7.541631 -22.920840 1.411563
23.503355 4.312772 9.005684
26.275569 8.578086 11.612525
-7.035871 -14.158917 3.125583
29.538446 17.943898 -20.625700
30.206021 6.225921 7.586627
-34.295783 20.962585 -0.605028
-6.208455 14.527166 3.186617
-35.814383 19.436966 -2.395217
-33.024466 22.154670 -3.477037
-31.994046 22.573917 -3.852729
-29.001351 18.397065 -0.567953
26.247583 -2.506692 4.903895
-8.125040 -9.774898 11.784625
11.827147 7.065014 12.914602
14.553218 0.669275 -7.715008
25.133842 14.970623 12.091770
-34.963365 20.651713 -4.988736
31.456436 -14.004764 7.794928
-8.774151 -5.295309 14.947862
2.330211 -14.161042 13.224033
22.003798 14.994947 9.404562
-17.204523 -0.098312 7.916443
36.323891 8.305909 2.907704
11.585481 2.152358 25.275800
-10.214199 14.071394 1.972210
-3.757368 -14.618083 3.677675
-2.400082 -15.524992 1.503865
21.395122 -14.913370 6.765588
17.129987 14.932246 2.882446
7.928134 1.786016 21.839179
9.134537 5.003665 20.724139
5.607202 3.383290 18.703851
-15.210976 5.512709 8.377920
12.540484 -1.705940 6.489138
13.512024 -5.322089 10.199361
-9.843319 9.213563 10.735054
-9.066422 -3.852330 15.259199
-0.405398 -11.550828 16.982058
23.038609 13.927723 16.043577
16.320037 -15.441862 1.712311
6.418315 -1.356250 6.179443
3.559918 6.131403 13.223362
-14.183633 -0.592272 10.776111
-8.248344 17.788767 1.569954
-2.259955 23.352980 -5.292531
-24.376360 19.885010 1.651213
-3.589883 -5.341285 20.055903
8.329042 1.026214 22.545378
6.623937 0.841654 20.783471
-20.310416 0.187882 4.791510
-14.238354 6.981232 8.409365
15.479494 -3.678751 10.337604
-15.961012 -11.330866 1.998474
26.094242 -11.382288 11.277269
-4.936901 12.225808 11.402296
22.378735 3.065420 16.483080
7.643955 6.585927 16.404692
-13.119274 8.113374 8.635510
27.985717 9.344188 -14.837400
-3.447528 -2.381198 21.363087
8.797399 11.081387 26.996662
9.503864 0.944457 23.735437
-9.099891 -7.553300 12.996340
-12.574854 -11.775565 4.198546
-12.998392 -11.829907 3.618425
25.706798 3.862019 10.862037
-30.610097 17.785898 -1.373173
6.246742 6.826830 6.855081
21.995406 -3.201972 16.731736
17.926898 17.842745 1.555426
-14.269282 -6.354970 8.738107
-31.545559 16.870136 -2.741784
-31.879163 16.372336 -3.878023
12.333754 5.247802 23.353153
-1.802293 -14.509110 6.790202
-24.589852 16.684823 0.827036
-23.978568 15.307643 1.206618
23.876918 -6.632361 9.279315
-1.571140 -13.384871 11.723163
-8.266305 3.415640 16.289662
12.234188 14.988780 14.659355
8.228059 -2.267204 4.414488
-4.906331 5.950951 18.310193
14.728650 -23.425858 -3.931701
30.200720 14.128438 7.761621
5.946922 16.663378 -7.695812
2.176448 20.020456 -7.776052
23.938554 8.719242 9.344450
26.426201 11.013326 11.975882
27.055323 9.013882 4.630815
24.707110 13.059028 14.593880
23.896029 19.968120 -7.697146
33.522900 4.798136 5.608448
34.826738 18.755650 1.755621
-30.017270 23.195858 -2.099995
22.508170 -2.961700 -7.639439
32.702511 -2.742729 6.350988
32.569806 -10.051907 6.729965
28.746268 12.101804 6.257977
7.354270 4.639386 19.247637
-0.721787 -12.497594 14.877625
2.544792 -15.209531 1.903650
20.258821 19.175172 -7.783423
1.016319 -0.893841 11.608354
6.173360 -2.272351 6.390557
25.906568 -4.393257 11.137874
22.369998 14.873404 15.809436
11.016624 -15.787735 -7.786913
12.035908 -15.227718 1.887551
23.231304 1.603134 8.120719
19.479645 5.364597 16.589656
-4.611337 -13.583093 8.064346
-18.436085 19.641817 1.600684
-14.432668 10.203730 4.852286
-14.397300 13.732551 1.628310
19.901817 23.165617 1.631262
26.673618 4.780050 11.998696
-12.975923 -11.565987 4.094088
9.735469 -17.642083 1.655336
-33.144148 22.029043 0.179121
-25.497767 10.540000 -5.854075
30.365778 15.035791 5.157854
-26.961367 9.761721 -6.234096
-6.427640 -12.313443 9.396960
-14.245735 23.284410 -7.293177
8.865288 5.076736 5.308753
-23.614140 12.428149 1.386388
0.239855 -15.047927 1.894292
-3.224112 23.354405 -1.404368
22.045806 14.935052 5.746680
-36.686153 17.635807 -1.416283
-27.596194 9.671326 -0.339131
13.254296 23.377238 -0.373857
9.722741 3.286534 22.746818
22.277143 -23.342214 0.729481
-7.357242 -11.125082 10.628961
-27.571398 18.499749 -5.022225
25.276108 13.741322 14.556754
23.617000 -15.021573 5.255892
25.974760 -6.049993 13.179569
1.829289 3.334373 10.697763
24.793565 12.981365 10.141252
18.102240 5.323771 14.987045
-13.982472 -6.156660 9.135377
19.147340 -19.140550 1.640633
25.173220 -14.452720 10.662690
10.191511 6.953302 17.436519
36.542180 10.484435 2.654947
35.041391 -14.422219 3.917410
34.698833 2.846256 4.444100
35.904787 -0.723190 3.282058
28.619072 11.695153 6.152148
15.427259 14.173346 -7.730934
-31.611210 16.790945 -1.682072
28.943853 -15.038853 3.763955
13.412112 -0.690315 -7.742175
4.007340 -23.476500 0.131391
29.534420 -14.667137 6.798328
-31.534408 16.927628 -4.175436
18.962596 -5.028060 -7.795678
-23.430448 17.929693 1.610425
4.158915 -23.358422 -5.220591
28.829368 -14.867455 1.294852
-0.246581 -7.221393 22.177002
15.216913 -23.414766 0.572099
27.740080 13.124594 -7.763943
21.768516 23.147035 -7.454181
-33.312674 21.916722 0.990044
9.825254 -22.165194 1.680187
7.624834 1.033836 5.007849
-0.280181 1.151432 12.837143
25.916087 8.414377 13.117168
-30.757190 17.723319 -4.685003
18.376363 -0.673952 -7.685016
-34.909938 20.668527 -4.452011
27.872014 10.796127 5.299432
-27.970253 18.531006 -7.041117
27.381890 -13.898560 4.987303
24.703812 12.230432 10.095121
35.804821 8.022697 3.429231
24.443189 11.686705 14.816172
28.909358 0.982832 6.290808
29.186680 8.814096 6.661064
27.633245 -7.080589 5.031393
-34.704420 20.818619 -3.383166
33.109770 -8.363985 6.043698
34.020943 -8.341574 5.147067
-17.787960 23.440624 -6.264286
-31.895455 16.351016 0.153346
24.176344 14.313808 9.747177
-32.258014 15.804214 -1.744887
32.848298 -6.690542 6.259982
23.174512 -3.176270 8.362563
24.031081 -4.506836 7.059222
35.918453 2.758103 3.329848
33.452659 9.860070 5.765849
34.492635 -6.684915 4.645550
32.860620 -3.880252 6.247426
35.622768 5.858224 3.618410
35.701865 6.344872 3.540321
37.495056 17.235527 -5.734103
35.077243 1.327385 4.006490
30.126369 17.989875 -20.856882
34.750441 -8.075009 4.441106
29.504840 -9.648435 6.855028
29.006149 -9.386483 6.378141
21.431975 12.214140 -7.747874
28.857600 4.470594 6.277468
27.239088 9.302056 4.728564
-31.024753 22.877904 -3.154255
29.533349 7.908492 7.036960
26.175595 9.555352 4.974564
30.183022 12.417894 7.674854
31.849122 9.783663 -21.190349
30.369055 -6.482935 7.737571
29.258081 -6.747277 6.732748
30.999734 8.846866 7.908778
24.825454 -7.728239 -7.626235
34.511182 -13.742939 4.631794
33.179753 0.692918 5.967163
28.077190 21.150860 -13.713495
20.536088 -23.526382 -1.030845
14.297719 22.701827 -7.754169
30.833080 -15.236078 2.029855
34.016830 -15.736828 1.816484
29.623691 -1.168081 7.096489
-28.425413 23.489956 -3.331723
32.491027 14.141507 6.699855
30.338422 23.439991 -2.346144
29.182307 -2.427346 6.677751
34.277560 -9.682445 5.011043
17.958673 -18.425109 -7.725365
28.064705 13.019312 -15.700234
35.658233 23.357413 -13.078877
28.052651 22.432772 -10.730432
29.915473 10.371060 7.486714
36.829968 8.950122 2.394953
35.253014 -8.033685 3.949176
36.654085 -4.284551 2.437377
35.408657 -2.820659 3.864028
37.061249 5.202977 2.212867
29.827184 2.182701 7.464208
28.096991 20.767468 -13.569191
24.009818 0.255523 -7.655970
27.351305 -12.049046 4.833797
24.804518 12.334224 -7.695572
34.888950 6.131788 4.327916
34.918825 0.818528 4.178528
28.107074 19.032354 -13.782294
36.641297 -1.600230 2.549374
30.647677 11.551903 -18.938794
32.004256 -12.901076 7.272821
36.284110 23.512918 -4.297757
30.061218 -2.612843 7.540853
35.496676 23.452970 -2.570245
28.833173 3.404880 6.195583
30.756988 -2.084230 7.863967
22.454623 -13.693798 -7.757128
37.479236 17.227583 -12.872033
31.818828 14.454478 -18.377556
24.840460 -9.301222 -7.662750
28.111419 22.866361 -15.567250
35.732951 -10.021593 3.594283
33.118151 -4.073693 5.990843
36.639105 12.305732 2.481787
37.228419 12.939261 1.771012
28.145218 7.195853 -8.715434
34.445494 1.069545 4.646818
34.500812 6.262336 4.700914
23.363136 7.242757 -7.709988
37.494064 17.886547 -7.711889
36.423464 4.498175 2.920561
31.677112 -6.224882 7.444797
34.615678 -3.289995 4.612993
36.137260 9.206635 3.084151
35.231450 -21.607090 1.721258
35.496896 -1.498436 3.749674
22.871851 -6.873720 -7.638355
34.965235 11.209071 -19.252127
31.889617 18.041319 -21.002217
35.538717 15.510463 -18.534792
28.385953 11.475565 -19.077621
36.444331 -5.956153 2.561606
35.571097 -5.870982 3.556117
31.531244 -0.121755 7.616372
34.534460 -10.439363 4.802999
28.305556 15.197698 -18.287321
28.147776 16.264965 -9.658999
30.546507 18.416574 -23.477457
35.674535 0.921494 3.433829
28.083925 8.777899 -18.412869
33.688698 23.403188 -23.175986
33.776044 -2.103752 5.384029
33.732096 8.493989 5.509319
28.110406 7.434066 -12.021604
32.896087 -0.598582 6.277961
37.599850 12.744956 -1.168030
35.648514 -12.780414 3.645810
35.403163 9.739041 -23.514806
29.643652 9.450590 -22.206736
32.446864 12.398615 -18.543791
32.983922 12.478981 -18.496616
28.129666 3.381089 -31.591192
3.745030 -3.558226 16.700155
27.922675 19.007682 -29.004209
36.904341 12.874389 -18.118353
28.001899 9.630530 -28.007281
37.533683 13.653985 -30.009211
28.148982 9.400266 -10.191593
35.003389 23.378089 -17.427713
28.053783 5.482110 -14.529749
29.230529 -16.331234 -19.137540
37.488381 11.897541 -5.684626
30.847913 17.260768 -19.773848
28.083204 2.080469 -20.986828
28.322250 -9.945786 -25.220628
28.657319 -16.106366 -18.719978
28.024872 13.049563 -8.922262
34.318712 15.415525 -31.900805
36.085102 17.637481 -31.351461
30.354117 13.734399 -27.183809
37.544866 18.822379 -27.667471
36.650702 -11.739147 -19.157914
37.279517 -10.190689 -20.498713
32.771630 11.023371 -25.840865
37.572709 21.055173 -14.044147
35.171428 23.380177 -20.859719
31.350687 -22.824684 -26.106782
31.407501 -18.715678 -30.847115
28.314246 -16.122602 -31.386427
28.005687 -22.981496 -24.527854
28.119246 9.422515 -25.870730
33.710919 22.838940 -25.706962
28.051178 17.574990 -18.706333
31.127621 -13.119177 -27.197519
35.517344 15.883910 -31.742677
37.471883 19.348659 -18.395363
28.030804 8.853979 -27.324058
32.174979 16.331784 -18.826764
33.460556 -16.250771 -18.862709
37.245163 -18.474622 -31.045118
37.090458 -22.034044 -27.298567
37.493620 18.985341 -21.096452
34.310074 17.171797 -25.893687
33.118631 16.994879 -26.134207
37.499815 11.533702 -16.221032
33.514056 17.034921 -19.289293
34.816721 10.286809 -20.257462
33.267868 17.762187 -25.178062
37.500956 21.058140 -22.900157
28.793554 23.336933 -22.009061
36.204166 12.840263 -32.299620
32.387547 -11.682789 -19.028693
28.099193 4.420330 -27.372819
33.193858 11.517242 -26.290837
28.330485 -18.190300 -25.168395
28.252481 -16.798485 -26.877430
37.536938 13.374833 -28.978134
28.471248 16.273539 -27.050990
36.397320 20.817784 -29.148285
28.657951 20.495836 -29.784376
28.769766 -15.020253 -27.105738
33.656099 17.464599 -31.445970
32.113804 16.833352 -31.643761
34.890827 -13.426365 -27.202761
34.541217 -12.117392 -26.783790
28.739993 22.607684 -26.307786
29.927231 13.405953 -27.184203
35.525561 11.624890 -26.461413
32.033515 -11.478671 -26.454514
36.016340 18.431640 -31.070743
28.891836 -16.682061 -31.718939
28.386131 -23.134423 -25.214259
-21.046170 -1.378241 4.000765
6.550407 -6.177572 29.748187
-19.392736 6.989504 3.154887
5.901651 -5.552218 29.501029
-20.789262 3.524403 3.681738
-25.318634 -17.438889 -3.346002
6.477176 -14.619507 14.889796
4.911920 -6.032684 7.546319
11.697083 -13.107310 25.804092
1.076500 -12.625620 16.521999
-32.836694 -22.192696 -4.485072
8.935312 -11.187025 27.096792
-8.813835 14.408297 2.069275
8.232341 -0.600626 4.450446
-4.338538 13.995536 6.692319
2.797228 6.725474 25.617144
-3.098566 -0.553546 21.979624
-18.898282 3.372163 5.629459
10.740290 -6.901174 11.298741
9.417997 10.139374 28.738881
-10.868338 11.844136 5.775616
1.641182 23.426246 -6.514934
23.684780 -12.884754 8.957192
-31.956512 11.870968 -2.771897
-27.032132 9.690312 -6.844781
10.440180 -6.119522 20.022556
4.272640 3.176899 28.940985
-6.608095 14.134059 4.118507
-22.837739 2.860724 2.090110
10.969869 -3.323418 24.132625
1.477732 -10.389048 20.652171
-0.517946 9.571216 19.627219
4.808185 -4.957748 28.822390
-9.602110 -12.093268 6.728791
0.804399 -12.907096 15.457218
-12.213883 -12.635158 2.853034
27.087558 -10.847484 4.797967
-0.569685 -17.153259 1.508312
-5.932882 -11.544748 11.504900
-7.341055 -12.421855 8.225305
7.024555 6.816733 7.041226
21.037755 14.939712 8.686432
16.015897 -5.681245 13.205395
5.380979 13.145468 19.175481
1.800478 -2.618584 15.638383
7.182833 -9.863185 27.021498
2.320884 0.609570 10.225963
11.939915 19.622200 1.573236
3.347800 -1.378760 17.461391
8.306796 14.010206 19.763673
10.968429 -13.419177 24.315746
-21.994899 4.164248 2.247697
-0.140588 -1.074155 14.095222
-13.865224 7.329424 8.530729
-6.655746 -14.002849 4.097294
-14.749925 3.945685 9.634106
13.387143 5.084418 25.384886
-9.950713 3.325730 14.665298
10.465270 -2.201009 4.381179
-10.507398 7.104684 12.024461
-31.894159 16.286454 -5.308116
-8.835540 7.397326 13.486230
6.090196 0.279953 20.279759
-14.388321 8.727447 6.811351
30.156624 -6.767890 7.450572
-3.735572 -12.522601 11.727572
11.984078 6.585752 20.070407
12.108393 6.056825 10.006215
27.070456 -14.701556 4.343956
26.230854 -5.266231 11.539343
12.126684 6.400307 20.757905
-8.064375 -12.507407 7.365827
11.286076 6.303424 20.323734
26.417229 -8.884856 10.106410
-31.591504 16.799089 -0.723070
-34.620593 20.915242 -4.162662
24.769192 -13.134438 10.178345
6.359499 -23.386921 0.787374
37.504090 19.548805 -2.445589
27.906316 -2.626493 5.408701
27.923024 13.064978 5.330870
29.048866 -2.992093 6.555327
27.342191 -9.551232 4.871447
32.458140 4.270445 6.632145
28.401735 9.181747 5.798764
27.772164 2.033075 5.692762
28.510876 6.960635 5.847251
28.316401 22.221531 -26.413823
31.994947 -7.687533 7.066504
36.152231 -9.730978 3.156411
33.213894 11.193414 -19.160084
27.992832 21.230531 -15.953499
36.457173 -18.428209 -22.091621
30.985530 9.476456 -22.949794
31.800828 17.875985 -20.653369
33.949165 -15.462576 -18.478944
36.164221 23.025821 -25.429036
28.476232 13.276375 -27.397411
31.306587 11.421813 -26.299482
31.548860 20.981095 -29.057685
31.392608 16.244848 -26.706397
14.541913 -6.817028 22.299273
11.438452 -7.007279 12.515722
4.175091 0.322077 29.329422
-30.190442 -10.260075 -1.761257
5.001546 -6.432404 13.806315
-0.954147 -11.349742 16.784019
-30.440287 -10.332553 -3.408594
12.544089 4.571431 26.476894
-5.717889 3.806962 18.562029
-1.763783 7.882029 20.105755
12.019239 -14.115534 23.121928
-6.078318 -3.154714 18.605936
4.486363 -7.157005 27.062300
2.007496 -5.497682 25.486590
1.581068 -4.617728 25.499079
26.225607 -6.784343 11.469376
3.767485 -3.629884 28.266034
-16.173472 5.050315 7.684414
16.073542 5.203332 12.742003
6.392307 3.872346 30.791048
-23.474737 -0.589366 1.902797
-15.144215 -7.255126 7.267019
-31.221532 17.533784 0.303797
-15.492679 -6.777206 7.339484
2.669839 13.960125 14.474209
24.778523 -7.411756 10.103692
1.949766 -13.473476 15.030522
5.430482 -11.214321 23.368093
-7.226798 14.074766 3.776824
-0.927484 9.255185 19.568155
-1.072483 10.135333 18.455974
8.254284 13.048788 22.478283
-18.663662 2.469856 6.108686
3.257219 7.614335 25.417414
0.896473 -7.688883 22.878828
3.849592 -4.506360 15.866020
4.425421 -4.323234 16.670614
2.631218 -4.242428 26.759006
17.837895 -15.026784 20.510698
1.794217 -3.544629 14.604986
4.106330 -5.864213 14.401287
-2.918395 3.868052 21.371975
-0.868369 7.899532 20.928751
3.441937 6.337517 26.488595
7.970839 -6.499603 16.868544
-10.557528 -10.146509 8.898159
9.650924 -0.166392 3.636842
-2.194733 12.189611 13.776066
6.942284 6.493202 15.481103
-11.762477 4.286819 12.400225
-31.889878 16.396862 -1.733174
12.504898 6.398314 21.129863
-10.363649 13.638460 2.599202
12.525853 4.555591 8.274270
-2.488002 -1.979212 22.401152
0.248873 -0.515032 25.246704
8.310484 -4.944249 19.726524
-23.694585 -13.404751 -0.527319
5.818611 -4.777868 17.479421
21.343393 2.242956 15.445501
5.589556 -1.745125 19.420134
10.044626 -12.062887 26.912351
17.426878 -1.580475 11.135602
2.339426 -4.734618 10.204176
6.626660 6.186395 29.898092
-1.256173 -4.253147 22.992962
-0.702819 1.692170 24.282766
-8.829829 -4.215726 15.378199
