ply
format ascii 1.0
element vertex 1593
property float x
property float y
property float z
end_header
5.894150 -4.298853 18.292991
-13.942109 15.936780 -7.719078
-23.863170 -9.241056 -7.922577
11.611339 4.480447 23.577464
1.607915 0.427829 -7.819675
-1.291319 23.437822 -1.418702
-24.060809 -9.748349 -7.837179
1.223512 23.397432 -4.315815
31.390590 23.462281 -9.335873
9.211152 14.968458 9.924365
-12.129089 -4.465083 12.000644
12.795998 1.978890 -7.722963
-10.923715 23.374580 -0.331913
-36.447434 18.172063 -5.915592
-5.883863 23.386362 -5.663651
-16.212607 22.596926 -7.670085
8.447098 -2.086184 -7.705972
-11.991005 -5.438707 11.730065
14.644440 -2.605161 9.086940
-14.191249 23.446182 -4.790233
-11.738877 23.421939 -1.838353
-7.465512 23.314477 -6.604281
-27.445637 18.400523 -4.984268
4.187774 15.035803 6.673748
0.836416 14.600247 9.278229
31.819641 21.978777 1.627340
-17.933222 1.668735 6.962296
-0.710146 23.430072 -3.987958
-21.392337 -23.508141 -5.849923
-37.552480 -6.911322 -6.523647
27.727453 -20.410076 1.573771
19.249448 7.448328 19.992446
14.463171 7.029336 24.681341
4.728330 -2.538446 7.976291
2.075227 -1.417974 10.517670
25.859563 11.799021 11.172185
-8.523435 10.878601 9.815066
19.586129 21.975738 1.639783
15.325164 5.282015 12.198268
1.739190 -1.673471 10.853422
5.227947 -1.887936 7.459210
16.029251 -12.779853 -7.795780
-31.363430 9.986616 -7.601083
-36.041233 -13.521719 -7.678861
-16.228572 7.438395 -7.699121
-4.106247 -17.182439 -7.761864
-6.939469 -1.130326 -7.713162
-28.054552 -22.365766 -7.753603
24.594717 -22.469876 -7.708141
7.586696 -15.134850 1.800555
17.328262 3.679487 -7.682578
-28.731776 21.815733 1.702870
5.048378 7.186573 8.746373
-2.423049 -15.049116 -7.799796
8.709894 -0.023136 22.763802
-13.686457 -7.373614 -7.720989
-22.070816 0.479337 -7.717079
8.114042 7.363528 11.154155
5.994970 0.116510 6.578136
0.797456 -0.117196 11.813933
20.533256 8.104815 18.564104
12.974558 7.970691 26.142012
1.284321 0.177210 11.315975
5.609903 0.044490 6.987313
26.037925 -23.407445 -1.866679
37.566571 21.584492 -19.903856
35.677236 17.698079 1.631625
6.335750 -3.568762 6.258316
0.776896 -3.835086 11.806211
8.267748 -6.097170 6.233347
6.117154 15.315116 -7.662122
0.816378 20.248045 -7.629307
5.807385 1.240583 6.796768
1.023900 1.085041 11.541842
8.714839 -4.401417 4.534643
-7.977010 13.323420 5.699397
23.349055 21.979331 1.541655
9.994408 -4.762020 5.956831
8.136124 -0.418163 4.257242
29.039216 14.844486 -32.074798
28.129870 0.385356 -27.040380
28.120958 -18.707163 -8.422893
27.595718 -19.214055 -7.759473
28.127912 0.741643 -27.600868
12.243888 1.792550 26.499636
28.106973 -16.340699 -10.473781
28.122981 -1.567433 -24.850194
8.510447 7.365059 11.302762
5.418772 23.438204 -1.544906
28.169225 -17.857812 -10.086897
12.547659 7.178355 15.777060
28.119261 -1.021079 -25.218051
9.600007 -0.637761 3.681411
-20.622429 15.894800 -7.775051
11.045285 -2.559681 5.355000
1.183258 -6.452942 -7.866411
16.938827 18.914397 -7.750827
16.444096 0.583069 10.138202
5.034453 0.177582 19.292771
11.281934 -2.205601 5.392534
10.907789 -0.859344 4.546325
11.461622 3.408681 6.203545
10.444698 6.344123 9.382145
14.537842 1.643475 8.432651
13.672361 0.027858 7.285793
11.706028 1.380008 25.611634
35.094731 12.346623 -18.725423
28.652171 -4.708344 6.089685
17.533697 -23.416002 -1.152394
-3.355569 -14.155010 7.367456
-0.104959 9.851571 19.853961
-0.061272 2.919587 12.890546
7.076334 2.786227 5.543187
4.518911 -5.399691 8.162985
2.901348 -5.755627 9.806569
3.286156 23.397480 -1.348163
-37.409596 -13.970579 -3.904252
9.191262 4.984806 5.632370
13.765938 5.115789 10.352745
21.740812 -14.015781 17.449416
-28.157396 -23.431342 -3.920708
4.843221 14.319151 -7.682162
0.222350 19.741683 -7.594448
-31.939145 -11.949033 -0.779789
-28.969344 -9.121242 -7.747991
-22.759352 -14.116086 -7.784191
-22.917867 -23.345423 1.015469
-37.450740 -8.803609 1.167412
27.967899 4.783562 -8.742721
-20.845267 -23.397787 -2.233830
25.610092 1.670984 13.595979
-37.545731 -6.100482 -2.028698
8.371458 1.448328 30.773434
-2.258655 11.512640 15.113445
21.394823 -1.894988 -7.772380
23.649125 1.958091 15.557002
10.053096 1.312027 29.164868
25.864083 23.511400 -6.821301
13.029987 5.109480 24.121365
1.634737 -17.367763 -7.770778
29.459394 -7.571794 6.842603
37.192214 5.399381 1.534973
31.265734 5.029082 7.672233
37.528350 11.118052 -3.267615
37.558135 3.545390 -0.114376
37.518565 8.865480 -5.566111
23.189818 5.087716 15.941476
10.637836 5.681447 28.443033
-15.069832 -5.501872 8.264243
3.313513 -3.172539 -7.750303
-17.345793 17.631079 -7.782212
-18.290084 17.172130 -7.785281
2.525673 -4.126680 -7.765579
-16.710570 1.958158 8.101283
19.567130 6.201911 18.353568
13.079560 5.149712 25.966230
-17.242166 -5.662671 6.244563
22.259957 7.886823 16.770880
11.553304 7.535477 27.584678
18.003964 9.171791 21.118277
15.669586 8.991664 23.582283
-8.127709 -23.472711 -0.568454
-37.502250 6.812437 -0.837912
10.743008 2.580680 4.946282
-37.489027 7.775414 -1.813406
-5.867812 -23.477875 -1.817319
-37.505573 10.553605 -5.243185
-3.206110 -23.439108 -4.818729
4.379793 -0.302640 8.244005
2.653955 -0.368201 9.951997
10.543725 8.834546 28.568044
23.071325 8.981910 16.014364
18.489968 9.134357 20.629311
15.567073 8.416602 23.622086
-7.047692 -14.874876 1.774408
-29.117301 7.826786 1.565082
-15.178755 7.533631 6.961558
15.180395 -14.532367 23.800911
22.178441 -6.352302 16.912120
11.260330 -6.510619 27.829292
18.192317 -13.891812 20.778843
-31.270857 22.779595 -6.821121
9.170050 -17.055949 -7.653787
-4.053566 -1.718523 20.790314
24.680468 -1.986514 -7.760489
14.807740 -15.071508 6.245260
-24.772161 3.198816 1.397543
37.488678 7.457561 -18.487118
37.517919 -9.897279 -1.772941
-18.341676 -0.349718 6.750481
23.126899 -13.315175 8.320507
-5.210980 0.566030 19.656069
20.814884 -16.337908 -7.765955
-15.160891 20.075246 -7.698074
5.519061 -0.149212 -7.722780
20.781224 16.582003 -7.763574
17.074103 -20.469533 -7.761883
1.353807 -4.904977 -7.787390
2.152148 0.954353 27.160770
-19.479681 15.982436 -7.781108
2.397122 0.946766 27.423957
-3.131361 0.368510 21.963177
-2.504170 1.261017 22.538017
17.392291 21.594795 1.709390
17.117663 11.842178 -7.682840
34.988538 -4.873839 -32.162917
35.561820 -23.459228 -13.129692
-0.208512 10.872451 18.400963
-9.135496 -2.849230 15.555930
13.418445 -20.079377 1.694990
6.704259 -15.825351 1.598834
-29.828700 21.647793 1.696373
-1.909893 -16.308053 -7.802717
26.307694 14.809518 11.975306
-4.419503 -13.372194 9.088784
-26.874269 18.395829 1.102337
0.954311 -18.650476 -7.759644
-33.191912 14.430111 -7.698247
-10.028520 -2.275864 14.766336
6.272083 -10.210064 25.472047
15.953780 -14.961479 11.111206
27.841990 -10.919071 -8.106738
12.808378 4.748027 -7.763638
5.063599 -23.357634 -7.334931
28.095544 0.798632 -19.766469
17.335059 14.064138 21.971458
-9.003232 0.678097 15.994520
17.135571 14.280026 22.084222
-4.709038 6.044068 18.549082
19.491927 -22.900464 1.579355
15.370592 -23.422040 -2.545295
-19.955796 6.077988 3.120379
-23.013892 4.148144 1.734296
-13.670528 5.042058 10.121354
-9.039383 4.919973 14.812423
31.204716 10.303000 -20.501446
-5.968325 6.879837 16.720744
-4.087623 23.370887 -5.897925
-11.665015 22.985292 1.459064
11.366046 -5.477464 21.905564
-8.659888 -6.493971 -7.751542
-20.297614 5.522118 -7.760684
-2.986957 8.585026 18.133532
4.085249 -15.030523 3.199128
-4.478865 8.527371 16.659984
6.471629 -8.210169 28.016612
8.027894 -10.056055 27.658726
-1.600117 9.567315 18.536462
36.268914 -6.782727 -32.172962
35.497324 -23.464871 -15.021557
7.600220 8.630533 28.754509
-5.550577 7.496070 16.608504
-3.463852 9.022960 17.170228
13.641472 12.984269 25.647228
19.979367 12.570725 19.080948
3.019176 10.806240 21.422301
33.276638 -14.127695 5.782856
23.396101 10.723174 15.720818
26.840824 -4.370515 4.713774
10.437686 10.521924 28.526260
16.020063 17.172190 1.556579
0.643530 -4.352119 12.534180
11.102775 13.036781 25.252680
10.213784 -14.708203 17.656990
11.903845 -14.995735 16.240138
-23.058600 -3.248558 -7.754628
-17.730714 -8.540555 -7.690987
2.552922 10.153005 21.810409
21.497810 12.089485 17.741631
11.586948 11.981692 27.463061
32.218660 -14.506517 6.619447
10.812201 7.271450 14.185471
34.991189 -14.603525 4.398533
4.415153 -20.837653 1.596710
-35.411799 18.685513 1.692725
5.011992 14.190129 15.580337
10.096634 13.141988 23.980128
10.617085 14.038430 21.744758
11.595231 13.623492 23.996360
20.822437 -14.976674 3.801341
27.902589 12.203776 -18.101272
12.767524 -23.313546 0.905729
-9.656414 19.345900 1.607928
-1.842116 -13.026416 12.570768
-33.479498 -9.515307 1.546906
2.797263 -13.200772 16.870364
-23.655772 -20.010249 1.649079
30.044420 14.337405 -18.177920
25.382261 -16.292862 1.562285
-5.472968 14.982468 1.985231
16.511540 0.997942 -7.738399
21.521077 4.764334 17.394933
30.290198 -11.777642 7.720256
12.168447 5.323747 26.963817
16.434931 14.963490 6.185986
6.739566 9.986921 26.277847
21.463566 23.330809 -0.345104
35.620272 -3.325014 -32.117213
15.224433 14.965583 5.870948
35.912737 -23.496137 -12.066267
30.463013 15.616214 -18.430809
29.694220 13.171702 -18.368913
-22.674143 21.187717 -7.817273
7.457968 -8.620116 -7.672701
-22.457196 12.276240 1.494385
31.244463 -23.428943 -16.966129
-37.519841 -9.686887 -2.174088
31.305353 -8.166823 -32.108010
28.121357 -10.202428 -31.067627
28.098665 7.076863 -12.848353
28.134004 -8.120661 -28.494164
-1.397263 9.763141 18.550572
28.109773 -21.665318 -18.892318
28.099078 -19.774238 -16.831181
-27.672878 -18.523258 -1.858466
-23.687602 -23.408833 -1.326738
-0.797662 7.346946 21.486653
-0.454452 9.316470 20.092633
3.478750 8.059063 25.303212
-1.408879 7.832361 20.587725
-17.493360 5.095202 6.228276
13.982661 14.975993 10.810995
28.240001 -9.646605 -20.426007
28.140717 14.071921 -8.612638
27.381375 -0.214492 4.854922
2.071938 11.617093 19.285085
28.271738 -11.339821 -18.742289
5.859792 13.325031 19.285158
-10.267765 4.831629 13.703202
9.532121 13.263203 23.314190
6.296179 -17.829676 -7.682169
-31.532340 20.856474 -7.771064
7.152165 12.714966 22.348708
-23.788531 16.469335 1.474020
16.346398 20.667381 1.708590
10.449036 5.487988 20.987556
26.599886 0.125655 12.515815
13.171755 -14.965810 3.249395
32.695565 21.416544 1.631630
25.423423 -9.816516 5.723160
-30.067248 -10.090013 -0.503945
-24.082001 0.228098 1.592987
37.492077 16.644962 -8.551510
-24.033069 -15.542835 -0.064145
4.707478 12.216661 20.741672
-25.424437 -10.411744 -1.987133
2.939791 -6.197733 10.082397
-24.637558 -11.283078 -2.308256
4.200222 -6.828422 8.456498
-29.392420 -18.325714 0.732043
-32.351237 -15.814918 -0.168724
-35.042317 20.055061 -7.400767
5.712974 -20.938057 -7.793672
-34.072672 -21.319368 -0.451604
-1.630490 6.805112 -7.820394
10.436943 13.834478 22.360900
-35.497218 -19.844396 -0.460453
24.444643 -2.379772 -7.764228
-3.575738 -2.259904 21.214455
-7.941607 12.369019 -7.740930
-21.308000 15.319862 -7.769274
21.463540 1.344904 15.202117
1.492701 -16.483338 1.611329
-3.023269 7.658802 -7.807595
36.006293 18.985325 1.680906
-6.554863 11.236103 -7.730585
24.376634 -19.554951 -7.704494
9.411837 -15.564310 -7.627032
-4.502367 -1.478303 20.364455
0.758965 -7.155882 -7.871811
12.126818 14.954573 7.842301
-15.852798 10.234857 3.421617
34.693270 3.640420 4.436079
22.473252 15.221065 1.667490
19.361546 -14.045326 -7.701692
-15.274606 11.805117 1.870230
0.585162 6.688597 23.245945
-37.467498 -8.935142 -6.913757
-32.621010 -13.679488 -6.901717
15.722206 -23.421485 -2.514765
18.775768 -23.229056 1.253428
-23.612737 -23.392666 -6.253076
-14.726546 10.977575 3.592222
-28.191822 -18.454385 -6.665116
28.128023 2.127245 -12.718199
27.675335 18.717359 -8.025394
4.706553 11.281363 22.440264
15.325028 -23.435776 -3.625073
4.537781 6.780895 27.204385
36.427658 18.512908 -23.476478
4.418713 -4.070000 16.861187
28.098436 -18.870420 -29.986254
28.263603 -21.617525 -27.683624
17.126050 10.123909 -7.751514
32.299530 15.822132 1.675837
35.461526 18.919676 1.625452
-21.843537 22.757297 1.619158
15.664697 8.963164 -7.787110
7.075295 12.298450 22.958419
-23.469485 11.768128 -7.749514
32.043401 10.658694 7.123171
-2.250756 -9.505858 -7.702740
-23.513297 21.570420 1.657580
-33.044878 12.798301 1.446247
-1.561678 -18.313815 1.587291
-21.850659 14.466657 -7.787611
-0.381824 -6.445434 -7.927048
-24.758266 20.293675 1.672178
-0.309361 -16.306630 1.613466
7.108941 12.524298 22.628404
-32.442546 21.929605 -7.670832
28.870299 20.429766 1.652926
7.941197 -18.115191 -7.670168
32.805008 21.244631 -28.514936
2.623619 -13.126181 -7.797541
-27.264996 7.473973 -7.839268
-6.491407 -13.731037 -7.842801
-37.211863 -1.843849 -7.371620
-15.958634 -22.171574 -7.709378
-12.713094 -19.669570 -7.753764
-16.615400 -16.297107 -7.803590
-34.305356 1.558990 -7.780486
-29.969315 -1.990964 -7.744243
11.828824 -16.668436 1.650595
14.684308 -14.993412 16.274236
-5.161665 18.174838 1.621331
9.201258 -12.545692 24.375549
-16.587641 -22.366035 -7.667534
-35.959942 -2.509443 -7.742115
-31.562529 1.971233 -7.733162
-28.771185 4.965530 -7.746925
-8.809652 -14.654888 -7.780181
8.734223 -11.770131 25.691742
-12.373320 -17.519812 -7.732998
24.132311 -13.136442 9.339362
28.453942 -15.067247 2.765367
-10.860139 -16.237449 -7.714986
-30.047222 3.246888 -7.710565
22.582474 -23.443692 0.774396
-37.474889 9.605395 -6.702139
-12.543565 -23.456580 0.599820
-37.477112 1.839796 1.023605
-4.246511 -23.327993 -6.729181
-37.551522 -0.590499 -1.266373
-14.414437 -23.389987 -1.052707
-37.597945 -1.337645 0.001864
-15.828399 -23.389869 -0.246115
-33.846651 5.689580 -7.764228
-7.963593 -18.773962 -7.767160
-7.674053 -12.220391 8.689759
-10.598401 6.145428 -7.755064
-8.274248 3.775276 -7.731938
-20.915830 -8.882396 -7.762470
-23.129320 -6.146074 -7.769251
-33.388598 -21.811759 0.724937
9.145599 18.486444 -7.712877
-35.982274 8.131105 -7.756675
-16.241897 3.907292 -7.785246
-6.528772 -21.770468 -7.755130
-10.930696 -1.182159 -7.724258
-36.089829 -19.094584 0.498306
34.395310 -16.627515 1.619758
34.028484 10.594608 -25.307457
5.363639 -1.094006 19.414858
-28.506958 9.599622 -2.126939
-12.686324 7.842675 -7.722849
-13.764944 8.857721 -7.726548
9.504527 11.918369 26.531677
-5.352383 0.581428 -7.687787
-16.645866 11.086474 -7.709365
-6.661989 1.857755 -7.704905
-3.116938 -1.601699 -7.733334
9.713388 11.574678 27.417136
12.398462 -2.586983 6.690130
-15.023586 10.563305 -7.732755
-4.423786 -0.695639 -7.696742
17.905965 23.375812 -4.717239
-21.528657 4.510808 -7.764089
-9.980926 -7.221196 -7.727597
-35.571116 -15.287763 -7.723112
-4.729913 -12.391927 -7.783276
-25.914880 9.956276 -7.482004
-29.561339 -21.624058 -7.782425
31.514275 3.471389 7.750464
17.365058 2.281686 -7.675056
19.864949 23.367869 0.184976
-8.620716 -7.617180 -7.741852
17.692339 23.394769 -2.799471
-21.426799 6.200953 -7.794585
4.882974 6.318081 13.979084
4.729341 23.409135 -2.470404
-10.765291 -14.758392 -7.697612
-29.899894 2.880180 -7.712262
19.227953 15.022763 3.969767
-24.581508 7.878091 -7.757089
-6.400521 -10.668543 -7.760000
37.485568 13.745838 -14.946079
-32.495778 -14.034467 -2.014161
-28.075615 -18.512813 -2.494796
30.875912 23.498918 -10.640766
-7.036115 -8.233542 -7.734732
-23.409956 7.160532 -7.753439
21.386238 6.058358 -7.727511
-25.669843 18.616926 -7.513736
3.673337 -11.970724 -7.763977
29.427006 -14.898290 5.317796
12.821566 -10.345968 -7.827394
9.957817 -14.563688 18.461982
6.492209 -6.773636 13.988193
32.667845 -17.341065 -19.911248
26.773829 2.396741 4.772963
18.783106 2.047931 12.831563
26.188333 10.195436 12.997307
17.118662 21.403472 -7.766630
-27.281265 -2.979877 -7.725419
-17.314333 -13.313376 -7.779526
32.417903 -11.107030 -25.974502
-17.225604 -8.217062 4.272958
10.478367 -16.137615 -7.675276
-13.148059 -8.479875 8.098251
-22.225959 16.704437 -7.725874
2.788587 -8.772293 -7.765264
37.537443 1.293885 -11.685314
9.168453 -9.691031 -7.734337
-23.780546 15.388789 0.172985
37.501986 -3.122974 -7.739887
37.556772 2.149650 -12.475113
37.529055 -3.392728 -6.103922
13.252421 -23.381983 0.747282
-27.812252 18.880089 1.457985
6.487322 -16.503385 1.581898
-8.966310 -9.777245 10.871649
-20.639400 21.094725 -7.809252
-30.687186 21.277267 1.729172
6.281054 -7.608366 -7.704024
-23.780193 18.205863 -7.770801
3.058513 -8.828170 -7.766409
5.656783 5.429971 16.602828
1.664055 -3.657670 -7.737406
-18.273521 0.660458 6.758710
-17.604320 15.769747 -7.762649
-17.740532 1.404493 7.186983
2.017682 -3.239740 -7.752301
-17.728507 17.070956 -7.778529
28.041629 -13.416583 -8.580475
-17.637877 19.545201 -7.759719
4.808882 -3.220287 -7.734004
14.187644 5.709490 -7.762560
12.209621 3.340813 -7.732924
28.150133 -0.097852 -21.439379
29.170573 -23.372363 -8.016866
11.429863 -5.448213 -7.762802
29.206396 1.234825 -32.112715
-7.571573 12.756205 -7.744847
37.442207 -4.573903 -16.091504
-1.236958 7.271250 -7.797950
10.477622 -4.563139 -7.766790
37.440388 -7.870990 -13.749048
37.464344 18.414392 -15.295796
37.503686 -14.646966 -12.496049
37.500961 -3.568564 -23.513677
34.211630 11.545767 -19.190038
36.743561 -12.266019 2.422001
35.194808 -9.793288 3.910459
19.752830 -14.987427 4.271866
36.051611 12.537858 -18.713336
10.339653 4.918291 28.768840
15.379368 -14.971759 10.164962
22.991130 5.805527 16.072309
4.177413 14.343040 14.251303
-10.408139 20.903823 1.627428
30.318699 -4.500010 -32.109280
30.507256 -23.473182 -14.283572
12.776775 1.382974 -7.728234
13.023847 14.960037 5.685427
-17.485131 23.294653 -7.160224
17.698237 -15.011075 6.971294
8.546831 -3.165272 -7.744728
37.440687 16.981428 -16.162525
-4.078212 8.010820 17.603260
-16.329923 16.724330 -7.753975
2.393850 -1.828718 -7.759961
-12.308437 17.442285 -7.755011
2.828819 1.576424 -7.798312
-16.334254 13.220675 -7.721432
-0.623341 -2.184986 -7.728095
-20.240935 14.140391 -7.799128
13.537325 7.989158 -7.769092
-5.762508 0.917507 19.130311
-0.506587 -5.724215 -7.922749
4.232625 -1.221718 -7.748126
-19.945961 0.842379 5.086775
-15.546631 18.707957 -7.722328
-15.347253 0.888331 9.657477
-17.315068 23.458854 -1.224108
13.171849 7.472303 -7.762488
-6.713919 1.125756 18.231049
-1.811590 13.746217 10.597173
1.570023 3.466027 11.026419
35.453402 10.256748 -20.445467
28.403175 23.318847 -14.061762
14.430951 -9.491043 24.722773
-16.992686 14.940001 -7.743399
0.205438 -2.918385 -7.713372
-12.044753 3.125008 12.543883
19.195427 -9.239162 19.987483
-32.696555 -14.412045 -3.454122
-28.711692 -18.419502 -2.707903
-11.970163 19.790353 -7.815109
5.634544 2.830178 -7.740987
-18.228367 1.302176 6.735167
-9.166568 22.750948 -7.752504
8.656282 4.888487 -7.774500
28.489425 11.500885 5.862197
28.383934 15.108149 2.351509
-6.644284 -6.990122 16.050137
9.580241 14.970060 10.780053
-9.306622 14.431482 -7.757297
0.647119 5.406160 -7.766026
-15.601077 16.597131 1.665279
37.576299 2.073669 -18.735113
37.521155 -10.171610 -7.225434
8.198653 -2.498881 -7.710159
9.061799 -4.084383 -7.802996
-12.055702 -6.003580 11.318124
-17.377389 22.279812 -7.806702
14.697216 15.071831 16.734576
5.598324 -10.915682 24.017638
12.618432 23.388360 -2.741531
8.572218 6.251419 17.667788
19.817468 -19.350906 1.610099
22.699018 19.877581 1.574275
4.457392 1.812149 -7.765204
-12.396617 18.276914 -7.782930
8.919564 6.946336 -7.746246
-32.400248 22.416884 -5.406673
-7.769279 23.212296 -7.308943
-12.995421 23.437941 -1.971034
-33.051742 -12.540430 -7.685909
-26.738429 -18.244299 -7.417219
16.746372 7.750360 -7.809101
-37.523996 12.226034 -5.843793
19.478680 23.314020 -6.860039
-1.471151 -23.436203 -6.073648
20.022362 1.828997 13.974616
-7.453160 18.762217 1.588812
32.089162 -21.050515 1.607390
18.126766 3.758091 13.219666
-20.132149 21.034717 1.660076
11.780168 -21.862306 1.638320
-23.593138 13.365126 1.815694
37.480996 12.013045 -12.019555
11.318476 4.225541 6.708588
25.261647 -14.663705 10.845965
37.462084 15.678785 -8.363102
26.500195 -20.557207 1.593922
-23.159929 16.223749 1.626656
-19.481914 -14.216109 1.583018
-28.302443 -5.208484 1.629734
1.180637 -1.525461 26.148630
31.958130 -13.882208 7.182440
-29.679138 9.870795 -2.670934
-23.848977 15.181598 -1.461451
-24.881804 17.162527 -2.193564
37.552038 12.825255 -13.176772
37.508887 16.858298 -8.888042
17.238946 23.391026 -1.555480
-21.894725 -23.390785 -2.375566
-37.522847 -6.889796 -3.197271
35.368557 22.901891 -25.620420
36.385456 7.940431 2.780452
35.871946 23.264991 -24.246120
34.429098 8.183980 4.682423
-19.601295 21.405742 -7.833902
6.834479 -5.557109 -7.754863
-34.772261 -18.942173 1.667754
18.681856 7.559399 -7.784116
-32.964614 -20.359539 1.634449
-23.578790 14.935724 -7.283043
-30.571250 -23.125849 1.066241
-22.616031 -23.321829 -6.876098
-21.282859 -23.091694 -7.664860
-29.782541 -23.323604 0.735524
-36.782226 -7.421756 -7.744768
-37.342930 -15.215424 0.603444
-37.546991 -7.977061 -6.540524
-36.933339 -16.506225 0.939021
-8.340734 15.080289 1.561492
19.118629 -15.005219 14.784927
5.433689 14.973522 4.077830
19.578938 -10.409383 19.624640
14.131553 -10.570434 25.029938
28.505327 23.287415 -13.883392
15.950435 23.393386 -1.284620
28.097117 -15.873368 1.658363
28.233650 10.051211 -25.427829
28.088499 8.143491 -9.731409
4.693103 15.006920 3.788797
-7.196510 -14.398117 2.444310
-24.143779 15.947030 -1.586737
11.566234 -14.992109 4.630896
33.361924 16.120454 -31.917868
22.945473 -23.442098 -1.595310
27.380910 -22.599836 1.553446
21.381001 -14.953294 14.438812
34.422080 23.460033 -1.307729
15.099710 12.672154 24.055840
18.699817 12.246037 20.367779
31.322567 -18.767459 1.566849
33.495935 10.597059 -20.029402
6.715551 -3.724011 19.514291
-24.888019 17.226391 -1.413619
-24.203679 -16.384415 0.671525
-29.900956 -10.166657 0.751778
9.049752 5.828769 6.887383
11.707174 19.423392 1.602816
-26.311579 -10.115624 -6.405211
-24.433448 -11.549221 -6.755939
15.664277 -7.242944 17.793480
-16.223971 -1.364226 -7.728602
-14.807157 -2.447297 -7.805250
28.340125 16.834019 -31.267530
-17.632419 -23.415920 -2.809057
19.653109 -5.247595 16.517828
19.047910 -5.849537 16.852282
-37.577916 -3.682655 -2.556954
29.776367 18.327876 -23.556676
31.501933 -14.409658 8.021325
37.282772 -14.164723 1.623175
22.803663 -14.350920 16.285614
-11.474104 -8.611077 9.713129
-4.418220 -9.679759 15.624216
-4.194288 -7.807027 17.783164
28.157423 14.754248 -31.274286
24.600341 -4.126780 -7.758413
16.111060 -14.965442 10.363112
20.477522 -14.979367 6.364399
-25.339595 -10.644865 -4.267953
-25.225441 -10.784148 -5.164225
-3.483364 -4.364721 20.755976
6.358602 -23.320634 -7.585282
18.494107 -15.087754 19.706138
-22.388185 -23.393787 -3.962377
7.263649 -5.665856 17.541519
-37.525193 -7.286442 -3.591466
28.851927 -23.262610 -23.806128
28.650501 -15.118524 -32.111687
7.272047 -15.329672 -7.683008
3.090780 9.511150 23.286655
-29.416713 21.850818 -7.695081
-1.098078 -6.584727 -7.895284
-20.736591 13.378845 -7.781628
-20.665162 0.787829 4.335033
25.160810 -14.794764 13.524520
28.224926 9.189372 -24.378731
28.137488 1.623402 -16.090698
27.968213 -16.565522 1.637510
27.976320 -6.843736 -8.184678
-27.874488 -2.342111 1.596672
28.078187 9.729831 -25.181572
28.097480 2.173779 -16.674861
-16.312070 -14.061898 1.256912
-33.554654 21.669052 -5.674349
-18.125535 2.358597 6.689869
10.003161 17.338843 -7.717141
-15.287803 -20.845315 1.672254
-34.339285 -0.944150 1.656800
33.789386 6.278023 5.334466
-27.044665 1.909153 1.673243
21.153849 -14.147187 17.988089
-9.260241 -15.920133 1.591905
9.738785 4.907600 6.093582
-29.417613 4.808181 1.481690
7.694853 3.701906 4.861083
22.341626 -20.435198 -7.725480
-10.999099 12.921879 -7.765231
-0.884852 3.449660 -7.804747
13.526095 -7.345980 18.194412
12.563345 -7.115766 18.537675
-25.536020 23.412837 -1.003979
16.477185 -7.246843 22.312009
16.860403 -7.375573 21.930846
-4.707804 -11.573767 12.548721
12.842269 -4.938360 24.004362
23.777116 -21.554489 -7.677925
19.610718 10.254947 -7.712700
-11.174998 13.237614 2.609428
13.278132 18.777225 1.584372
-24.174571 -16.102387 -0.560737
-30.457877 -10.126996 -0.712847
-37.537333 -7.107216 0.475167
13.604603 20.651656 -7.737154
-20.849507 -23.284799 1.194928
-21.159362 -14.532662 -7.753169
-27.973155 -6.912945 -7.774408
-3.267236 -9.395000 -7.698775
26.007378 -15.528886 -7.717764
13.165826 -15.003200 16.783278
-23.450983 11.554600 -7.825743
11.500149 -14.839742 18.116076
-13.638887 -14.200970 -7.692068
-28.832131 -0.030895 -7.729781
32.760414 16.461116 1.655475
8.876598 -14.951340 12.395983
7.608751 -14.852661 14.533593
-14.283780 -23.426982 0.726478
-18.798607 -23.414253 -3.335116
-28.985050 9.582750 -0.970694
-37.555030 -4.202340 -3.074107
-37.498193 -0.505331 0.877905
28.147885 5.308132 -19.071709
28.119087 4.801998 -17.718574
33.445825 23.473853 -13.984109
37.602362 21.663686 -7.962528
-21.552770 -12.939107 1.589929
2.474465 -13.719662 -7.805292
-27.369604 -7.309533 1.618849
11.646043 -22.141048 -7.729498
3.472038 -15.015987 8.277831
3.182393 -14.863276 9.633841
12.051578 -14.401005 21.767162
33.789214 17.387004 -19.708860
37.165383 15.949162 -18.373473
11.828830 14.949487 5.387264
36.816381 -14.201297 2.184317
12.704821 16.172902 -7.737253
5.830063 -5.609856 6.849637
1.177049 -5.497323 11.804938
37.455637 -14.840458 -14.510341
37.530406 -5.828780 -23.474240
13.207444 14.936879 3.836067
37.444182 -7.680692 -15.044489
37.494885 -5.941690 -17.784528
33.415684 -14.365596 5.614752
6.201015 14.947305 3.853264
-28.812276 -9.708921 -6.113635
1.548525 -2.776752 10.981257
19.227002 6.497236 18.868925
5.075876 -3.116182 7.631907
13.454198 5.723104 25.602206
6.054451 6.338365 15.250970
-29.598825 -9.895013 -2.399083
-24.045202 -15.727792 -2.637096
6.763733 6.579340 6.287187
11.805027 -1.807162 25.804265
-25.551192 2.839130 -7.734313
18.473723 -23.477588 -4.594146
-12.140134 -11.085426 -7.731575
-29.491201 6.559950 -7.747398
-7.674969 -15.394592 -7.842400
18.503074 15.018830 13.436127
-0.397808 12.973387 14.099249
37.434503 16.214300 -3.803418
37.496741 17.067398 -2.425446
29.881206 -22.342585 -27.166518
17.586416 15.052676 15.052063
-34.057556 11.439183 -7.756514
-3.362583 -19.757084 -7.737576
10.409023 -7.194882 12.785959
25.837830 13.662794 5.279020
-18.590398 4.663189 5.296630
9.509187 -6.596226 17.644182
29.981782 10.933184 -19.774801
-20.532792 -2.255456 -7.756099
-16.409473 -6.637817 -7.704298
12.681658 -7.364598 15.674471
26.089666 -4.352107 13.027155
7.854324 -3.754972 30.938107
1.790146 -23.055293 1.445393
24.272346 0.364677 9.582453
4.848717 0.495083 30.120422
-36.802112 16.136383 1.392949
3.442956 7.336400 25.752019
-0.571762 16.210767 -7.685319
1.837000 13.550248 -7.707894
12.508892 14.944348 17.652131
-8.763558 -4.647958 15.330862
-25.926378 -9.307352 -7.628236
12.062241 14.891640 17.994690
-23.528890 -11.599017 -7.819767
-25.018880 -8.721154 -7.862296
-22.917259 -11.155895 -7.801796
-19.450856 -20.537051 1.574459
-19.638932 -21.247121 1.541221
-35.946016 -5.578467 1.607913
-26.328782 3.230511 1.634425
-35.108318 -5.432017 1.603113
-21.826442 7.655296 1.628794
24.420300 10.182973 14.690968
-16.008850 -17.206894 1.630380
-30.893185 -1.063261 1.621005
22.579270 14.913189 13.573835
-30.421066 -1.387523 1.609068
-14.998314 -17.057055 1.632380
-15.568450 -7.060525 -7.709727
31.552238 15.045360 4.032737
-21.286735 -1.037805 -7.723488
-34.112424 14.367837 -7.844276
-0.619988 -19.519342 -7.770465
-16.723966 -3.197265 -7.759153
25.636487 -11.142296 -7.747064
-17.541580 -2.989536 -7.759433
7.474011 -4.778224 19.152412
13.880335 -5.730856 11.523817
36.533405 9.637987 2.585685
4.888597 -19.409420 1.641148
-33.185135 18.280644 1.663684
34.573063 9.439038 4.546051
25.919430 11.566459 11.245339
37.459576 22.397176 -11.887834
-11.827307 -9.436712 -7.712753
-24.135242 2.402421 -7.736448
13.674751 -5.494865 24.327247
6.232980 -6.815503 13.420645
8.181941 -7.205707 12.298240
-2.214870 19.156768 -7.639838
5.031771 12.187637 -7.682851
5.253855 21.425518 1.616074
6.828043 18.648586 1.599627
15.553621 4.611122 11.377441
-26.842834 18.377273 0.256434
-36.776073 -16.278339 -7.581992
-30.141632 -23.246892 -7.101744
17.257322 -0.383544 -7.755037
32.159466 -0.219978 7.011649
-7.449989 14.353345 2.246980
-32.790117 14.237467 -7.544249
-22.666428 4.194363 -7.796357
-9.403282 -8.093563 -7.710748
-30.845312 22.849337 0.147218
-24.482450 7.326758 -7.767160
-7.072960 -11.127948 -7.755240
-26.762416 -18.959236 1.455522
-33.089168 -13.095013 1.500847
-17.430776 -0.087470 -7.673786
-15.231256 -3.955806 -7.821924
8.784532 7.107883 10.168942
-5.826694 -20.380302 1.644691
-34.674856 8.644540 1.642003
25.336150 -6.664043 10.682814
14.117934 -15.013013 9.583703
21.423926 15.005456 7.686226
-28.038059 19.956535 1.649293
6.729785 -10.152050 26.129594
-19.182951 -2.361065 5.626568
16.511998 -18.126826 -7.761541
-10.642752 -6.166026 12.613878
-9.946265 -10.535737 8.935605
3.510008 -6.295946 26.601081
17.006969 3.500832 12.052218
-20.672663 -2.625905 4.009574
22.539248 1.605347 -7.747318
-26.600643 18.134534 -3.279081
-26.228051 18.125536 -2.230395
22.382212 14.950165 6.279265
-7.875085 -11.955790 8.789476
10.812922 5.784336 20.809850
-4.333070 -14.681805 3.678638
13.538304 7.275850 25.602659
27.254889 -20.261615 1.579653
18.994232 6.781719 19.170756
6.925795 14.462570 15.878048
28.329308 16.127344 1.611375
27.781200 -23.399576 -1.381478
-31.194127 22.842334 -2.320270
-21.320800 -16.026540 1.685604
-22.556722 11.087102 -7.732037
-30.183041 -7.196731 1.650248
21.878643 1.520927 -7.747880
-3.439381 -8.121468 -7.699158
9.561600 15.122920 1.876115
24.053180 -13.447393 9.267829
-21.235033 9.017417 -7.711192
-5.316469 -6.645397 -7.726441
-33.396859 -21.664124 -5.170468
-35.785189 -19.354257 -6.080975
37.331745 15.909842 -17.212012
-17.195217 14.300739 1.653851
-18.135322 -23.398510 -1.439339
-37.591946 -3.603147 -1.201238
-8.526009 12.028388 7.902779
33.849425 22.410290 -26.996287
-18.180174 -19.639763 1.630565
-34.378766 -3.732284 1.582934
18.789751 -21.838494 1.620841
-16.256298 -22.755484 1.517993
-29.067813 4.936058 1.495619
-36.590275 -2.127060 1.497061
-31.802889 2.236442 1.577445
-11.897902 -17.424181 1.679029
-9.331825 -15.019483 1.561625
33.477273 -9.792170 -23.717891
6.649840 -15.058277 8.206926
30.786360 -20.921082 -29.114841
31.416276 -19.563198 -30.192060
30.950123 -21.535078 -28.434126
12.211753 14.955623 2.246083
0.797635 11.934334 17.500458
31.328390 -20.334380 -29.629031
-6.758505 16.377506 -7.722060
9.358318 -20.259993 -7.735328
1.705159 7.917689 -7.754404
-1.416344 -11.902322 15.036649
-25.288309 -1.661175 1.661599
27.527915 -19.210803 1.590284
23.544268 14.994977 6.056774
-8.545982 -9.951571 11.068829
18.565457 15.075591 2.749012
20.350164 13.098923 18.738097
13.481025 12.847669 25.800169
14.174417 15.989478 -7.767581
-33.551486 2.749381 -7.763641
11.815855 7.204984 15.031350
-11.246942 -19.071129 -7.763303
22.559335 -11.164496 -7.731802
21.095410 -12.842768 -7.712376
10.632914 11.761367 -7.849410
11.099853 21.678761 1.582343
28.110999 15.776468 -10.954284
2.724840 5.499324 26.119454
23.874630 2.138351 7.386139
1.611858 9.281470 22.106407
-23.962561 -23.350398 -6.619384
-37.556037 -9.940713 -6.366666
-26.852805 4.461723 -7.784931
-10.903746 -11.443603 -7.712630
-11.383908 -10.777139 -7.723033
-9.750983 -12.515372 -7.715119
-24.990217 2.914015 -7.745479
-26.398937 3.727363 -7.749883
33.072623 -9.722819 -22.094571
37.547171 -9.177630 -18.065144
37.576696 -9.061439 -18.600298
37.480714 16.194738 -8.483711
31.947854 -4.808949 7.125252
17.481981 -4.914572 -7.751885
34.201065 -13.219244 -18.397119
2.479066 -14.400955 12.338430
17.217033 -4.536335 -7.766461
31.255336 9.944382 7.919138
-22.985039 -3.377285 1.770373
19.465481 -1.547697 13.371591
33.077327 -23.433869 -22.233556
33.352176 -12.953414 -32.236237
31.330280 21.911855 1.645658
5.705233 22.797623 1.810175
8.444615 19.872099 1.667761
8.223583 -5.046278 30.681336
25.103563 -5.116420 14.058784
37.531119 -15.439340 -29.392586
37.526748 -20.883223 -23.794288
31.859867 -20.408831 -29.554842
32.479147 -19.592388 -30.191729
-16.956248 16.016869 -7.750530
1.886564 -2.621562 -7.742485
-17.433276 2.045159 7.395174
18.369521 -15.025466 14.091103
36.284413 10.181507 -20.683488
32.208670 -21.389825 -28.608252
32.207129 -20.692538 -29.325833
0.866198 13.844037 13.094223
32.602648 -11.283683 6.547010
-17.724523 2.796685 6.939297
7.172509 14.974424 6.820294
11.461254 14.948822 2.325548
37.499949 -11.080833 -14.121824
32.403677 14.421145 -18.091984
37.437907 -4.814678 -19.964007
37.575489 20.102303 -18.277004
10.540826 -3.555259 -7.732715
10.413200 14.973676 10.989019
29.649369 12.274422 7.023444
-20.011686 22.658967 -7.844449
8.337006 -6.754382 -7.696368
-22.855519 23.430436 -2.370309
6.105213 -3.914980 -7.746875
-18.071884 20.116301 -7.784992
-12.851947 -3.637543 11.553487
5.795296 14.974332 10.680124
5.468934 14.983080 11.456536
35.677361 22.681385 -26.165924
4.186439 -2.656663 17.614669
-4.341507 -14.437034 5.071301
-0.878945 -1.363516 24.077462
23.206674 -0.929490 8.600325
3.109191 -0.454977 28.218451
11.425761 -5.856358 27.635721
21.747814 -5.967882 17.216932
2.635223 2.622772 27.295260
-20.749030 -8.407688 -7.757843
-22.606271 -5.894637 -7.759364
35.135565 -17.073158 -31.634922
35.980636 -22.855477 -25.939206
20.822544 -16.858596 -7.787410
25.122679 -12.174355 -7.735198
-8.616040 -12.992563 -7.760675
-27.453890 5.222573 -7.806344
-13.880859 -18.384706 -7.753904
-32.419684 0.833166 -7.725534
-1.888971 0.576145 23.141756
-37.448553 9.663545 0.372967
-5.080954 -23.298806 1.181950
-37.432750 9.346483 1.097560
-4.030642 -23.451438 -0.170266
24.271983 -9.806375 6.922941
-4.894832 -14.850366 -7.812932
-28.452993 8.948543 -7.729478
-33.198635 -20.660091 -7.689710
-35.121953 -18.856090 -7.712804
-7.821046 4.493453 16.239118
-8.935251 2.789374 15.709941
-8.665441 3.433189 15.766570
28.582604 -23.337817 -11.268093
-36.627893 17.712237 -2.179343
-16.442152 2.899621 8.115090
28.617775 -2.615241 -32.065130
2.385345 -23.424608 -2.411322
14.859357 -6.598458 -7.767950
12.080549 -4.524394 -7.737762
-36.657018 18.051873 0.396616
4.930102 3.162943 -7.748667
-10.954261 19.460806 -7.852255
-28.854983 23.362333 -2.166736
19.633600 -11.231685 -7.703709
9.816763 -1.604868 -7.698430
-22.118071 1.720810 2.872588
-28.815393 18.535286 -7.197167
-18.659065 -22.446808 1.466849
-32.642942 -15.476728 0.341671
-36.099300 -4.321805 1.599522
-29.918906 -18.146381 0.260916
-24.736800 6.903868 1.592445
-15.009819 -18.321352 1.659644
-32.368575 -0.730457 1.642550
-26.067220 5.301637 1.588672
-25.516823 10.495699 -2.582091
-25.929978 6.705993 1.550112
18.738162 -11.874673 -7.708490
-7.838068 -3.904349 -7.722340
-36.894360 -17.152906 -2.776450
-17.899914 5.576451 -7.761793
-31.912206 -22.627058 -2.735128
-5.882989 14.620418 2.823378
-21.902525 9.183260 1.617008
-31.106655 -7.148529 -7.708307
-21.631574 -17.294029 -7.745320
-22.186090 -14.814038 1.620220
-20.599998 -12.945431 1.570424
-29.656798 -21.930190 1.729330
-28.755590 -8.570128 1.674596
-2.461716 18.504006 1.638623
-29.981996 -18.094893 -4.102878
-27.056833 -6.414495 1.606492
-36.093428 -15.748045 1.564172
-31.488888 -16.893411 -3.974808
34.708047 -19.350784 1.643083
19.478254 -15.003011 5.334374
22.993451 -14.948171 9.966758
-10.084626 13.056715 4.083841
-34.951942 -20.525132 -5.469800
28.102056 -3.486997 -10.365760
8.615023 23.417726 -5.073658
-13.236174 4.250587 -7.756544
28.143597 -0.730248 -12.802030
-33.088754 -22.028166 -1.773265
16.388077 -14.974884 3.499643
-24.983166 -10.969058 -4.630639
-31.130604 -17.301151 -4.973777
-36.191276 -18.639331 -1.634858
12.955429 20.523004 1.601031
-28.140185 -9.611763 -0.599240
-10.965574 1.858531 -7.754610
-23.716392 -13.400734 -0.359125
-29.996877 -22.620956 1.670935
-36.758667 -15.869811 1.476499
-33.445668 -2.457105 -7.786187
-16.908164 -19.378680 -7.816605
15.140502 8.676886 -7.781354
-15.018655 -15.130149 -7.770692
-28.839742 -0.571897 -7.740198
16.486180 -14.287767 22.790881
16.965280 -14.700579 21.780177
28.128909 -19.139593 -29.171514
28.127476 -20.544378 -27.694264
15.949399 -5.922050 13.897900
11.878100 -13.196926 25.770217
26.076072 13.743662 13.098534
19.351583 15.115099 2.475497
0.042293 7.738472 -7.772956
21.936420 -14.787379 -7.728747
26.098674 -18.764758 -7.710099
8.988264 -1.290716 -7.708398
-15.199705 22.858432 -7.751477
-6.667785 14.448456 -7.732571
-14.006907 -9.232640 6.386628
21.855771 -23.062367 1.372317
25.124514 0.260769 10.474785
4.765907 1.961643 29.608197
36.658697 -10.067052 2.526607
35.733073 -12.781462 3.436455
30.415338 9.660003 -22.962689
12.706500 11.534154 -7.852673
11.498122 -3.724680 6.642914
36.564741 11.487649 -19.101712
17.479743 -23.448371 -3.267785
10.112137 -5.433907 6.974593
12.562496 -3.140997 7.280187
12.860457 14.954374 7.918038
12.497718 -3.937607 7.874543
8.986580 14.888753 4.040883
35.280263 17.723937 -25.471830
2.632058 3.191416 15.732472
4.527027 14.967664 8.887137
3.304508 14.748537 10.051406
5.886378 -9.933394 25.470445
37.563485 -10.256542 -5.539336
37.541763 3.512273 -19.526742
-17.871733 -6.063637 5.419190
-0.483949 14.927419 3.750051
-1.604757 14.799919 4.916072
34.709132 -9.064598 4.374811
12.149696 14.997642 3.516756
1.128753 12.554681 16.675134
0.992714 -11.909823 17.792904
-34.760913 -6.399510 -7.717985
-35.849803 -5.368894 -7.731772
-19.953874 -20.679286 -7.759129
-19.776876 -21.550047 -7.785991
-24.405681 16.447851 -1.188332
26.864904 -3.016738 4.754241
18.538580 -2.670446 12.892668
17.465192 -4.370337 13.110575
28.126930 -17.157035 -16.222160
28.158242 -7.636096 -26.590762
7.166162 -4.134703 19.574168
14.683681 -5.198802 11.464081
11.447748 -6.577413 11.110377
7.797659 -6.248824 6.103012
-11.285027 23.413497 -2.174549
28.106543 16.699514 -13.608513
-8.040255 23.389739 -5.817914
-4.663212 -5.299639 -7.716610
-16.906145 7.552169 -7.706246
-19.072485 10.181118 -7.678098
-6.360034 -2.641395 -7.749404
14.539949 -4.847525 10.735179
7.792546 -6.244518 17.003574
23.504727 -0.514818 7.503824
12.153441 2.302605 6.276729
14.414372 -4.337831 10.036495
4.854393 -23.019809 1.520925
12.580009 -15.450547 1.794967
13.171146 -1.251862 6.995064
9.494641 0.176236 29.629687
24.904953 -0.359975 14.246386
28.079623 -14.380268 -9.856600
28.126921 -2.152534 -23.841870
3.979446 2.576922 28.634896
29.530952 -10.543801 7.029946
6.075961 2.432429 30.885246
25.761206 2.502878 11.094552
-1.359359 2.234771 23.605398
11.824996 6.739664 19.547319
26.230466 15.005133 2.207993
10.891521 14.951007 9.557790
35.037447 16.398501 1.678420
37.560921 22.344957 -6.133323
-0.509469 3.116252 24.099302
26.208852 -4.670263 5.101663
37.575146 15.455166 0.483569
-17.054656 -10.542747 -7.719637
-23.877870 -2.754334 -7.771651
16.906615 -11.726687 22.259015
-21.482703 23.386053 -0.420021
-4.507779 12.366317 -7.722776
-32.352662 -12.189821 -7.376484
23.528820 15.126277 6.315204
24.139170 1.243800 -7.738416
-26.350025 -18.131514 -6.836959
17.315503 -11.646554 21.868751
-2.635861 9.217324 -7.752205
21.296346 0.272452 14.978399
14.838247 -15.315239 1.727288
-15.625986 15.383616 1.643751
14.717333 15.042253 15.106687
-4.351211 0.612299 20.762004
15.419431 -14.987944 20.182427
-3.474915 0.835807 21.658611
15.249405 -14.915021 20.942075
31.116507 11.342823 7.900676
28.103898 7.651650 -20.598906
2.014749 7.563555 24.121460
-9.525820 6.240425 13.569902
-11.993471 6.722937 10.951573
7.298743 -15.435060 1.679286
7.553627 14.723537 14.859873
-29.684667 22.074453 1.651674
9.924328 15.034081 12.329371
-2.225243 -15.331886 -7.799672
-13.613504 23.441481 -0.853715
-23.276707 14.425563 0.525155
-33.052123 15.069129 -7.687303
1.479508 -18.218065 -7.764725
27.281312 7.631954 -7.861722
-10.477458 10.124874 8.874135
23.655601 9.969874 -7.759732
-27.570996 -8.719667 -7.723124
-22.982117 -13.763191 -7.744251
8.597568 -14.753136 16.025385
10.171180 -14.976670 13.795347
30.516625 23.436601 -3.142362
1.973405 -10.604518 -7.800263
13.126462 -14.936355 11.585634
10.477078 14.286236 20.544758
17.874846 6.117610 -7.771921
-26.246232 -2.997964 -7.750078
-17.409787 -12.200133 -7.763866
-11.559144 10.804270 -7.734635
-5.473607 4.897660 -7.695338
-9.483968 9.122694 -7.718759
-2.998116 2.695354 -7.705310
-19.536365 -16.641740 -7.765464
-30.880763 -5.455911 -7.682511
26.573629 -3.118478 12.129233
-32.924016 -2.737598 -7.742598
25.746266 -6.999418 11.083202
-17.066737 -18.612894 -7.813016
-15.746716 -8.785614 -7.672812
-19.626903 -12.949446 -7.713002
-23.447234 -1.510618 -7.751549
-27.466723 -6.206691 -7.768947
-0.168152 -13.186089 13.792938
33.577546 -3.409565 5.574944
30.270859 22.426757 -26.750072
18.575649 15.005459 8.725511
9.965874 -14.998310 5.972039
-12.454689 -5.629237 -7.745972
-19.328765 1.530793 -7.747111
15.434449 14.978394 5.406463
-30.202329 23.060375 -1.284028
23.936153 15.117585 13.962540
-25.626714 2.076540 -7.713469
-12.143154 -11.504381 -7.724762
5.119590 4.385021 7.473625
2.345737 5.054653 10.231501
-36.798118 17.777210 0.666062
9.326629 -5.116591 20.506106
6.556515 -2.485405 20.159154
5.289930 -5.094699 16.472400
14.364419 -6.601659 13.866114
30.033895 10.555076 -20.317515
37.577499 20.904413 -8.296977
16.551374 16.503416 1.581323
-19.204057 -19.484663 1.629335
21.557970 -20.289650 1.633286
4.748998 -4.173574 17.084026
-33.565334 -5.082776 1.561394
28.141738 -0.037994 -23.289279
28.365667 11.594459 -18.410319
-24.447235 11.588093 -0.621947
28.076006 -14.262404 -8.793276
17.129650 -6.490997 16.357270
-23.502826 5.730808 -7.792941
-8.639057 -9.286468 -7.690731
-22.946247 4.612255 -7.767049
-9.525942 -8.586077 -7.699736
18.789970 3.263925 13.438237
37.445870 13.888330 -6.852971
19.252290 -2.804511 -7.787935
19.100810 -2.125321 -7.781853
6.060245 -16.989000 1.610385
-30.974209 20.391777 1.698287
-26.582818 8.296137 -7.822094
-6.045907 -11.934313 -7.810484
18.858388 -14.988666 4.285327
-16.794441 9.027545 -7.697244
12.929465 23.254522 1.042378
22.370386 -14.827397 8.308834
-5.099849 -3.709075 -7.740536
24.204478 15.870341 -7.689316
23.964735 1.481512 6.987272
12.007231 -1.247165 26.134799
28.088807 19.709674 -10.820874
7.602193 6.037218 17.200947
-22.903518 -8.196842 1.650642
-22.494410 -9.213394 1.702944
-23.768843 -13.183492 -2.485830
-27.785146 -9.627565 -2.923480
-31.849305 -23.074081 -3.233679
-36.930613 -17.061928 -3.198494
-23.223858 -7.327380 1.630819
-21.473834 -8.771731 1.686191
29.640248 -21.705865 -28.201024
30.009121 -20.516610 -29.510313
29.961295 -19.801514 -30.017226
36.998943 20.679397 -29.034579
30.288163 -21.011298 -29.079297
-32.846904 18.238085 1.658156
37.321214 20.952717 -28.104829
3.442904 -18.179264 1.684477
0.068164 -21.106818 1.537501
-35.598692 14.458828 1.639780
-17.422521 -7.169435 5.019898
36.862759 19.214968 -30.521247
36.873603 19.724882 -30.089949
-2.466622 14.794990 4.486602
-0.941417 14.962130 3.144476
1.250045 3.146022 25.841894
32.930340 5.442392 6.184651
12.980606 21.172075 1.618370
26.152304 -10.197300 12.912908
7.310125 -7.538245 29.472240
7.584658 -7.349278 29.893359
8.067423 23.559865 -0.383252
7.379384 -0.834081 5.069095
33.868020 -10.578362 5.175920
7.872842 23.521726 -0.955253
33.516919 -10.468545 5.526686
22.161333 -1.476382 15.960544
34.765141 -10.591375 4.314649
-3.071106 -7.269401 19.359424
19.644200 -4.757980 15.799974
19.329113 -5.825894 17.118046
28.135585 -14.958941 -30.506928
18.124453 -14.965715 16.957401
28.135291 -21.406772 -23.827118
28.003965 19.137893 -8.587121
9.537298 9.178576 29.363976
23.672759 9.250721 15.434099
9.597211 11.880559 -7.820107
-4.633910 14.801143 3.201604
-20.771512 -19.031663 -7.730027
21.324683 8.380061 -7.671843
9.960402 0.718625 3.824387
-32.818506 -6.536156 -7.719154
-30.687395 -22.957975 -3.228906
-37.353160 -15.736042 -2.878207
1.371851 5.065999 25.146931
4.094613 14.765228 11.393800
6.181699 14.974325 8.993122
5.123885 -1.812934 18.962560
5.346207 -3.492931 18.289608
5.166669 -5.639786 15.498132
4.200934 11.058015 22.250308
37.439011 13.015093 -16.515824
18.402564 14.914990 19.704631
6.409796 -7.199748 28.836662
23.119491 9.846258 -7.745505
9.226580 7.355236 12.011550
9.023425 -9.844478 28.957274
28.097453 21.450005 -20.333765
28.066061 11.233954 -30.366555
35.664864 -8.963494 -32.125845
-5.335488 -11.817732 11.538795
20.160836 -8.683695 -7.748571
35.487021 -23.386088 -17.287185
-35.755845 5.469969 -7.822329
-8.611389 -21.686144 -7.848660
-25.264659 -19.935471 -7.771352
-33.993453 -11.408997 -7.665421
-25.691161 -6.717460 1.595576
-21.716688 -11.760922 1.621082
-18.945990 3.198818 5.632046
-1.207097 -9.667851 18.805182
3.815799 23.414920 0.835887
-37.525449 7.560065 0.865384
-7.039994 -23.332456 1.007075
-37.466679 9.854406 -1.758271
-4.291534 -23.496363 -1.905750
30.792254 22.370085 -26.908681
-27.589811 -18.555455 1.229027
-32.627224 -13.347398 1.195436
-4.225508 -19.931233 1.660710
-33.677575 9.960076 1.655906
-29.377606 5.325880 1.473877
-8.648848 -15.184275 1.567059
-15.061715 21.634781 -7.699783
24.712615 -18.963135 -7.707917
7.299002 -1.273381 -7.709278
14.932604 -18.686640 1.680899
17.760414 -23.495450 -5.072017
-15.431794 12.019775 1.709618
-15.616410 10.454524 3.403845
-36.482935 -0.291418 1.663236
-14.906335 -22.433010 1.640356
3.324841 2.816777 -7.785639
31.380495 -1.793415 -32.128265
28.140416 -1.248216 -28.345919
31.634574 -23.391856 -10.221153
-11.565564 17.559519 -7.755998
21.886819 -23.447485 -0.577210
28.178075 -19.300083 -9.493116
-2.171779 -14.470860 7.130779
1.261045 -15.076983 3.369003
-14.753144 -22.226970 1.695757
-7.394926 -14.976332 1.692141
14.086361 -14.998798 16.529138
-29.359169 6.979841 1.542650
-36.375405 0.006787 1.639475
10.971235 -14.575458 19.744246
-27.693160 8.878413 1.554317
28.089352 -5.669265 -18.447266
28.111198 -3.277179 -16.153212
36.356884 23.449153 0.999470
20.626681 -11.138283 18.594445
32.318493 23.430553 -3.419972
28.126920 -10.048555 -14.603105
28.080298 -7.673787 -12.214584
13.648540 -10.568894 25.510485
14.186716 12.737473 25.053532
11.222841 -5.777886 27.850077
19.487680 13.236480 19.617255
37.561149 6.413411 -9.287656
37.530235 -0.883202 -2.764978
22.139875 -5.208942 16.862803
34.124574 -14.499946 4.824674
33.421649 -14.022701 5.630107
35.564350 -14.113597 3.553494
10.140353 -0.458622 24.182712
28.122469 -12.183262 -17.952759
28.692055 -9.631094 -20.937586
17.987857 -15.917398 1.650585
2.621699 -8.988163 23.355878
8.737959 -15.394307 -7.634012
-21.181529 23.375960 0.590497
-29.322219 22.766386 -7.629566
-2.723230 7.958479 -7.797639
-6.128002 11.611065 -7.729077
-28.674018 -9.455413 1.284855
24.515720 -15.046539 14.494873
-23.908425 -15.069314 0.546571
3.775119 9.583236 23.960668
26.133294 -14.793999 11.796989
33.940140 23.434735 -8.808676
-16.007646 -23.427657 -3.183636
-37.485934 0.284489 -6.283571
-37.535099 -0.863856 -3.930425
-13.756001 -23.338725 -6.768647
5.380540 -15.054905 8.650120
2.660982 -14.693177 10.721450
5.054254 4.631515 29.124529
-0.296032 13.885515 -7.701348
-0.305375 14.398670 -7.712451
3.512660 16.657038 -7.700631
2.865158 16.949667 -7.699640
11.785763 -14.123252 22.724278
9.808788 -14.758947 16.941237
11.367162 -15.000177 15.352182
-16.339428 14.618196 -7.723049
14.791110 -15.932774 -7.734032
0.733822 -1.945717 -7.745761
15.854708 1.461452 9.706234
-27.650446 18.549309 0.733889
24.424503 -6.676297 -7.736685
11.743401 -20.754415 1.649585
-4.841456 -13.195164 9.146974
-9.199079 16.218923 1.628158
4.164923 -15.203567 1.971566
10.320009 7.626117 -7.748353
30.322757 -17.912182 -20.757258
30.572558 -12.389246 -26.858408
6.287699 -13.139622 20.243300
-8.207402 18.246954 1.609389
11.091655 -20.895720 1.616649
37.556147 20.935307 -17.077147
-0.360509 19.884094 1.639841
34.666378 -7.365700 -32.129240
34.954446 -23.471580 -15.893051
13.164163 7.040751 19.440875
13.751757 7.233385 18.353082
-16.035984 -23.464969 -4.846801
-37.521941 -2.181301 -5.177698
9.630291 7.336543 13.776995
9.274674 23.408965 -2.776637
9.013149 7.243395 14.367818
7.140169 23.446190 0.749528
15.915875 15.062120 14.974053
28.133037 0.913475 -11.558226
27.826305 -2.256477 -8.162978
-21.247737 -13.904372 1.605347
-28.075761 -7.241024 1.654495
20.757579 4.560180 -7.749729
-28.407843 -9.614169 -1.205427
31.048150 14.101586 -27.156266
-7.135918 -7.836238 14.862960
-23.671144 -14.053869 -1.186180
23.653587 2.554420 -7.747032
16.699978 9.729509 -7.767212
-34.726076 -8.541861 -7.749074
-23.077391 -21.282357 -7.790802
26.074876 -9.550791 5.074415
5.339106 23.487628 -5.214859
-28.434883 -18.455470 -5.886660
