ply
format ascii 1.0
element vertex 1592
property float x
property float y
property float z
end_header
13.640276 -6.845891 19.629948
13.924760 -7.176345 18.546581
12.244293 -7.240581 16.674986
11.430684 -6.967469 17.826843
33.448193 17.960243 -31.423553
34.578594 16.978195 -31.477448
-23.727573 -11.205464 -7.907541
-24.725224 -10.044375 -8.142483
24.444588 -5.074665 15.334588
-5.035946 -13.329280 8.114848
16.338621 -6.765584 16.585129
21.615202 14.588233 11.276684
9.516072 -5.460100 29.978783
23.639580 -8.247579 7.695388
-22.967442 -10.921819 -7.755719
-23.827568 -8.635591 -7.292900
0.455261 13.885508 -7.579814
-0.722021 14.670178 -7.653309
11.365188 -6.263354 20.268761
10.469173 -14.749189 10.745407
11.787807 -6.864518 15.903087
10.646873 -7.585299 17.658325
-12.658248 18.157875 1.767339
-7.700666 23.222513 1.709721
-4.247278 23.159281 -2.420144
38.026226 22.153435 -10.974377
6.581357 -6.560431 13.480943
7.835202 -6.966146 12.274755
3.840209 6.591151 26.695395
21.421976 23.760466 -6.937014
24.795563 4.214253 14.978384
9.396769 4.947392 30.425991
20.709467 -4.690022 -7.494923
-5.522100 -14.073878 -7.580774
15.826694 -0.472977 -7.693815
-27.970787 8.797409 -7.587980
35.413898 -4.367155 -32.262669
35.556343 -23.449612 -13.786979
16.217438 0.066179 -7.823370
24.549923 -15.392966 5.724206
-9.708190 -9.355013 -7.399414
-24.264872 4.889802 -7.918323
20.713144 -4.273531 -7.796177
24.404163 -10.986732 9.766607
26.988333 -6.655983 -8.326062
-34.595158 19.983778 -7.898708
9.563467 9.939138 -7.950633
-33.775040 19.455366 -7.460215
1.065937 -15.215133 -7.853650
4.970399 -20.007563 -7.175309
1.745193 -15.955399 -7.822227
5.327084 -20.487507 -7.367940
-11.537795 10.105336 8.753937
23.246666 14.687329 12.484336
9.307494 11.058029 27.876532
-37.573555 -5.582865 -7.120080
25.938009 23.511955 -8.004219
-19.770096 -23.659592 -6.833141
27.926678 2.033079 -19.037073
-31.141378 10.808936 0.847529
-18.317503 7.466902 -7.446547
-36.322441 -17.861120 -1.250000
-31.461412 -22.994316 -0.701973
-15.837416 -20.228237 1.013308
-6.764006 -3.429757 -8.006882
-34.507885 -1.839119 1.552413
5.212575 -3.959564 17.818121
27.894194 4.350657 -17.390593
8.750974 -7.127584 16.506556
11.996817 0.947402 5.817095
9.493347 -7.060874 16.129393
11.799332 14.798497 -7.372344
10.563967 -6.947048 15.380477
-24.319447 -4.046318 -7.960817
37.619305 22.138348 -7.563018
12.387827 13.539386 24.044443
-18.287958 -10.409713 -7.783340
36.361824 18.141342 -31.208187
-10.314681 10.711034 8.101441
-10.259285 17.568981 1.883206
15.300628 -7.046843 15.890289
36.401459 21.449495 -28.055870
30.686152 -10.919376 -20.356932
30.721880 -20.421392 -29.454597
31.105583 14.417419 5.465482
26.626757 -3.089828 -7.555998
24.407883 12.362313 9.613264
-23.918558 -12.848590 -6.138647
23.822029 -12.369416 15.673451
-27.550037 20.815199 1.483293
-26.761099 -10.044923 -6.280020
30.526121 -17.164795 -26.429625
0.449521 -0.185179 12.355120
6.584390 -0.159976 5.802629
36.441223 5.089461 2.488915
36.971138 21.224936 -28.358065
6.516675 7.111706 13.407198
6.183217 -0.488856 6.657273
8.209212 6.869854 12.100225
37.555389 16.719683 0.730007
1.722415 -8.802736 22.530733
-33.677818 9.796241 -7.768153
-29.293892 5.289237 -8.264239
-4.432625 -19.893820 -7.647315
-9.053223 -15.337547 -7.657414
-27.818579 -1.828274 1.708440
-16.063147 -13.439157 1.827561
6.923307 7.448867 9.939316
31.437933 4.257722 7.262851
15.894072 14.993777 20.219259
15.149669 15.017910 21.088684
-4.307843 15.040742 2.152944
-11.053220 8.396827 9.814949
-33.777905 -18.564642 1.805510
-31.831263 -19.448351 1.226500
3.749504 19.358784 1.527391
4.511580 18.077686 1.655578
17.648174 -6.025134 16.936090
8.575431 -1.690320 22.448164
-0.427553 -0.251642 24.433861
0.157142 2.578735 11.961628
6.910969 2.893716 5.647585
6.453780 -12.284077 21.922096
37.672264 21.640779 -17.108118
-23.664927 -16.077515 -6.358276
-30.560543 -10.013900 -5.676880
-20.160950 2.876595 -7.543982
-26.349375 23.747023 0.948270
-23.707069 -17.508335 -7.804543
-10.426563 -5.983816 -7.839341
-32.021152 -9.186120 -7.433465
28.206175 20.244385 -21.629677
11.503448 -15.124665 12.723516
-9.564368 22.661749 1.204656
-27.956343 9.701443 -2.404181
16.456434 -23.522362 -0.630387
17.821371 9.899346 21.569731
0.517447 -22.759577 1.846746
-37.214458 14.015028 1.915718
16.338268 10.242444 23.002958
31.585924 15.082635 3.655289
0.432781 1.781588 12.223806
6.764018 1.670545 5.500966
-1.040169 13.597992 11.249536
0.825942 13.423301 13.206585
37.551537 18.091927 -20.880615
28.998928 -0.713099 -32.255955
28.886303 -23.484886 -9.691081
8.568348 14.146587 4.393662
26.931114 14.407466 4.621504
-27.459335 18.741005 -6.808324
-22.540981 22.085943 1.233040
4.688957 13.425578 17.914034
-37.110336 13.166604 -4.853719
-1.638145 -23.709930 -4.065869
-12.510566 13.150140 1.799168
-21.850344 21.695951 1.300601
-12.064389 2.043391 12.840654
-1.088616 -15.502395 1.594634
-20.814093 22.638533 1.604599
-35.867203 19.276449 0.376945
0.778875 13.180465 15.191921
10.025061 14.156047 5.016497
-28.645237 18.345625 -6.778199
7.632488 14.857784 6.410609
32.480225 17.469578 1.615721
33.360687 19.431606 1.954355
15.266132 -15.390174 4.128589
-23.435591 -15.185509 -3.032530
27.973902 -7.920944 -18.519390
33.314541 7.435740 5.772409
-29.400507 -9.586096 -3.348599
28.169258 -3.052810 -14.578320
28.338335 -5.310935 -12.333086
28.215147 -10.057393 -16.436455
16.255222 15.057430 16.375408
25.935900 -9.019186 11.720097
1.208671 3.246715 26.415804
-38.000771 -3.164579 -2.411857
-17.361410 -23.574898 -2.232510
5.975318 3.228693 31.040024
-37.662163 6.338157 -3.057945
-37.823280 5.856543 -2.410585
-8.716953 -23.276960 -2.954494
-8.063880 -23.744965 -3.027627
34.863159 -3.367718 3.604943
9.088231 -7.042911 8.603524
-37.282646 -16.646006 0.203454
-30.538872 -23.083986 -0.186718
3.994915 -10.851048 -7.474765
-25.300337 18.860119 -7.232429
26.437666 -11.885262 12.122989
-25.735224 -18.679556 -7.808080
-33.092712 -11.049947 -7.321291
-33.194679 -21.451117 1.418959
-36.157806 -19.548847 1.630524
11.412263 6.829749 18.076307
-14.944282 6.593285 -7.392585
-8.075945 -1.060651 -8.042085
11.606435 -18.586834 1.640584
27.951115 -13.544861 -12.479332
28.417250 -3.249111 -21.446810
-23.574968 17.054939 1.758286
7.372691 -11.248027 25.306105
-2.386046 -11.435406 15.813007
-37.368580 13.922544 -3.074789
-1.095015 -23.499157 -2.600117
-37.868225 -15.507112 -3.689137
28.403702 14.627626 -29.927599
-29.799959 -23.170097 -3.265122
17.580954 15.022964 17.094841
11.766135 23.513325 -4.889411
14.061205 7.522968 13.935278
14.226718 23.332258 -2.013923
-17.311901 -23.397373 -0.644364
-37.126633 -2.687489 -0.517817
-8.654491 13.370209 4.834600
3.533606 6.029829 8.819977
-31.077700 -17.180593 -2.857030
-13.217168 5.703353 -7.813348
-8.297256 14.003169 4.707828
-8.195100 0.784332 -7.711858
8.603594 23.209080 -2.750229
-24.694990 -10.437983 -2.570917
-23.341759 -13.603116 2.096433
-27.337473 -8.810315 1.588624
-31.432428 -21.796076 1.705771
-35.496696 -17.356344 1.703267
-11.179401 5.236028 11.962439
-13.833532 7.897080 8.256559
-12.273975 9.382495 8.290906
-8.982378 7.427706 12.154780
-16.968958 9.035687 4.134455
-4.993099 8.393327 15.877535
-7.650107 8.961283 13.347664
23.094418 -1.599762 16.329815
10.203714 -1.825359 28.837416
-4.057307 -8.196693 17.772194
-3.691020 -9.940974 16.152998
-18.018070 -8.011322 3.292716
-25.985952 22.748713 1.550736
-28.202467 20.649332 1.727442
27.719894 0.124872 -26.148794
-35.906242 -18.688044 -3.769222
28.474369 -17.086273 -8.390082
-32.543839 -22.184135 -3.395479
-0.146580 -23.594561 -0.981095
-38.002533 14.264310 -0.834028
-27.602062 23.362209 -1.231236
3.221591 -23.936069 -4.252910
0.605883 12.536356 17.095530
7.574289 -23.491957 -7.607019
29.857609 -15.255750 2.826901
5.935016 1.541274 31.028021
-4.784328 12.081678 11.688291
-12.462841 12.110412 3.717721
-12.681133 12.254004 3.123305
-6.731099 2.357243 18.690367
9.537565 3.395930 -7.702619
-11.296757 1.958713 13.983645
24.804335 -12.470613 -7.840975
-24.202026 -17.735636 1.607522
-31.388517 -9.934978 1.587435
-11.464663 11.479949 5.372661
28.340982 19.954365 -27.285568
-30.446512 22.965591 -1.393890
26.801414 8.252669 -7.979751
17.368841 -1.682792 -7.872136
24.502800 14.443245 14.840339
7.356975 -23.210356 -5.168692
31.983955 -1.275145 6.890839
-11.473262 -12.686721 5.548765
-11.759642 -9.460233 8.666539
21.534393 -5.577627 -7.628385
24.837799 -8.492932 10.562130
0.637443 23.545773 -4.188453
34.685471 -21.368263 -28.738953
34.923565 -20.163731 -29.864561
12.515736 5.979386 -7.702384
34.327686 -20.220320 -29.252356
33.887363 -21.819115 -28.592266
-10.950946 -12.347524 3.920335
-13.490462 -11.267010 4.512630
-36.582775 -17.482656 -3.814477
14.641693 19.199383 -7.382169
18.390053 -11.084443 -7.598143
-18.179918 5.328603 -8.340840
-8.746826 -3.884749 -7.427021
-31.620796 -22.856440 -3.295227
-37.717419 4.144392 -1.913565
-7.642683 -23.332073 -5.305582
-10.418159 -23.845480 -2.108786
-37.677216 6.200917 -4.993110
-31.596228 10.929304 -6.179275
-3.697335 -23.041149 0.192183
-37.501083 11.349137 -0.809789
-35.862366 -18.567627 -7.044372
-32.111244 -22.080975 -6.906448
4.645748 -4.737373 8.138422
2.835257 -4.377849 10.296814
-37.000248 16.680466 -3.524021
2.424558 -23.031309 -4.091490
-16.409973 3.849142 7.218992
11.777537 -5.094849 23.055468
14.744569 7.508149 24.256166
18.619993 6.873279 19.893930
9.028037 12.669899 24.572952
26.672640 22.454390 1.809510
-6.958918 23.551611 -5.085811
3.843198 -23.123720 -4.948917
-10.553881 23.550055 -2.091789
-0.420014 7.838018 21.928635
37.783772 12.573796 -18.676830
37.770298 21.477400 -26.345438
1.865043 12.592330 17.266632
-7.166008 3.543509 17.418165
-5.031906 3.165589 19.113817
3.445364 13.564444 16.875048
26.235737 14.237716 11.030117
-9.190112 -9.730625 9.587476
25.964903 15.125144 -7.631926
37.822540 -16.012941 -0.659445
-24.364813 16.230143 -6.948713
-12.455504 -9.829136 7.977458
37.263973 7.778255 -25.028307
-36.781090 -11.998109 2.036637
-25.819748 -22.429960 1.736077
-6.956185 19.806908 1.183937
6.857031 -15.637536 8.790863
-6.431750 22.091358 1.334687
-6.252396 10.035447 13.232276
24.098240 15.438881 4.360019
12.828981 2.785439 -7.491025
17.960100 -15.523152 7.417281
-17.613741 23.896740 -6.404156
23.151680 -14.598324 2.677224
-27.599783 -9.952724 -5.455696
31.750978 -15.992967 -26.803505
31.931368 -18.509222 -24.774403
-12.056249 17.406307 1.740626
33.140919 10.744549 6.553354
23.435621 -18.762157 1.787791
33.897419 14.921640 2.325802
34.728439 22.273643 -27.618095
22.282301 1.952131 15.814122
22.676222 15.084391 9.358566
-24.593040 -23.336626 0.211321
-37.146030 -9.685587 0.393888
23.911200 9.766905 6.671066
24.066357 -23.379211 -5.111485
-31.290741 -22.909029 -6.916340
-37.414841 -17.241459 -6.542207
-32.347977 13.826480 -7.795176
-23.734104 15.413606 0.776615
26.383511 14.720848 12.105857
9.465796 -9.648432 -7.933465
26.147209 7.558293 -7.688261
0.180332 -18.893646 -7.829825
-9.774740 -9.217922 10.980348
-37.228848 -15.829572 -7.221117
-30.119532 -23.237597 -7.606749
12.006541 4.343972 7.556186
24.539022 -10.018491 10.276079
14.947354 -7.085267 16.354063
27.894125 -7.982937 -21.982887
28.136322 -12.799016 -16.558651
26.226831 -12.861431 11.451316
14.344881 15.521295 18.343838
12.300645 14.684491 19.985128
4.298096 -12.056383 20.536200
-7.701475 6.225170 15.626017
37.543343 1.453802 -15.922889
37.456738 -7.232554 -7.098893
-12.752824 -2.922435 11.671795
-12.297051 -0.796299 12.211470
28.517534 8.770586 -16.360571
27.814573 10.354582 -17.982994
-10.856975 -23.707335 -6.917491
-18.920563 -23.645773 0.887201
-37.747471 0.388861 -3.247071
-37.989330 -4.677192 1.485809
-37.243416 2.024297 -5.201804
-12.165663 -23.191578 -5.502712
-14.434285 -23.164066 -3.246990
-37.148586 3.360662 -6.416114
26.291414 8.325929 11.079229
-16.016796 -23.587296 -1.289098
-37.878910 -2.666990 -1.050220
26.342802 -19.462358 -7.798922
7.302577 -13.775922 17.833746
-18.433792 -14.319009 -7.810120
-28.875565 -4.774491 -8.115519
30.019085 -10.160518 -24.611561
30.002415 -15.983367 -18.252943
30.125824 7.235224 8.429933
22.561811 14.207133 4.527440
13.068517 11.794417 25.849571
20.843962 12.517940 18.466709
37.459171 16.230425 -0.953285
17.400167 15.093513 17.651104
-18.309216 -11.486385 -7.329737
-25.786644 -4.257621 -8.075943
4.791904 -9.137135 -7.226080
-22.936071 19.234882 -8.209589
-10.793691 13.297174 3.499335
-5.033556 23.367744 0.003142
-2.932911 23.713245 -1.721457
-5.759108 23.608799 0.490813
28.200758 12.465373 -10.637203
12.103478 -6.340662 21.338898
-6.735522 23.659695 -3.122957
-9.414657 23.870625 -1.423440
27.467844 2.661945 -7.537007
-19.426003 14.266535 -8.383594
0.077673 -4.871191 -7.707061
-19.308311 0.894956 5.863210
-20.784458 -22.993299 -3.730612
-37.214664 -6.275904 -3.657452
13.374821 5.668119 10.828928
1.113434 -2.252734 26.476246
0.514930 3.371615 12.368057
14.199201 4.832769 10.331668
32.696663 14.621539 -32.526245
12.799837 5.629461 10.437749
25.051785 -4.287038 10.132277
35.337555 -10.488220 -32.229073
35.784790 -22.902729 -19.239155
-5.784537 -11.065063 12.568471
-20.038349 4.053807 -7.834746
-25.381781 23.428417 0.980092
-10.017080 -5.395961 -7.564416
20.012823 -10.694465 -7.417605
-3.980604 -10.786337 14.233137
16.010340 -14.990972 -7.785057
-15.252346 9.184838 -8.052608
6.064214 4.374047 18.569813
28.249027 20.433239 -19.715014
-5.601150 -0.971061 -8.074815
24.243073 -0.231347 6.789992
-10.554404 -6.571130 12.667724
-30.579071 17.913939 1.296485
-13.429094 -6.522852 9.127389
-8.063360 -8.729419 12.437026
-31.821615 15.973845 0.658867
-26.834126 21.455723 1.846431
23.185516 -22.606991 -7.433883
-2.141816 -13.357151 -8.119540
2.772600 -6.526332 26.048933
-1.587244 -6.285947 20.945602
10.106972 -0.467720 3.737165
-5.547812 13.894825 7.000827
37.926163 9.359789 -30.333048
36.876415 -21.490637 -0.252836
11.082653 0.632370 4.892220
21.445246 6.500032 18.063965
12.137674 6.341715 26.607817
20.595867 -14.850161 14.882159
19.035482 8.235780 19.296907
-1.167838 -23.689026 -6.715581
-37.882797 13.204883 -7.060699
19.732067 23.282574 -5.834273
14.185516 7.939492 25.350052
20.205868 2.306780 13.973968
14.163602 -14.699793 -8.111510
-17.939573 23.754625 -4.799746
-9.938943 -3.810210 14.698755
28.144968 20.355307 -20.721642
21.172113 -12.113492 18.040613
12.819258 -11.984139 26.601719
-2.492669 -7.594517 19.518406
-15.097778 -3.654853 9.256131
-30.942596 11.063258 -6.218041
-30.918682 2.692255 1.098064
-11.592456 -17.011011 2.031997
-5.749156 7.276250 16.253033
9.902069 -12.805351 -7.522660
37.674278 10.122351 -18.319635
-19.587963 12.038909 -7.827887
-17.742592 22.379135 1.797408
-3.180964 -5.133642 -7.622641
-19.248829 21.565344 1.865633
-20.348251 20.528267 1.156688
37.423050 -9.930919 1.228015
-16.285616 20.189016 -7.915431
5.827589 -2.361311 -8.077953
9.146024 -5.465163 -7.602807
-12.956511 -1.949903 11.958125
-10.196953 14.638363 -8.105583
-0.205258 4.287834 -7.690151
23.875849 13.271500 7.020608
-2.939536 23.172495 -6.875324
29.558645 23.337950 -3.951186
13.408741 1.986254 7.367200
19.088602 -15.126168 -7.912000
-24.934671 10.560421 -5.220423
-25.315742 23.568926 2.288631
25.314352 -9.319928 13.874094
-3.532385 -11.256639 13.778016
-29.937212 17.893667 1.601436
3.761064 -16.177896 0.949540
35.937233 21.993048 -28.331814
34.289112 15.421325 1.964660
36.613598 17.093929 1.684397
-27.085810 23.629412 -0.721757
-36.437077 18.184753 -5.141956
2.602105 -18.083557 1.855114
-31.956869 16.694857 1.844348
-2.534137 -11.604650 14.029312
27.869740 -3.039213 -16.782536
1.643789 -11.794276 18.479696
28.141489 -7.884277 -11.420762
12.845953 14.543736 22.149426
37.286026 -16.484875 -18.554972
13.736103 14.083200 23.448364
37.880482 -10.500667 -24.958673
-19.230633 -7.471447 3.537163
-36.240570 -19.378807 -3.027409
7.621168 11.460452 25.086668
-33.394810 -21.311518 -2.959156
-14.977008 -11.895457 3.259018
21.764996 14.728810 14.099495
-15.281800 -11.449123 3.197543
-19.563091 -7.095661 3.534976
-8.674714 2.676560 15.817967
-20.587442 -5.195735 2.769963
-32.773388 14.470065 -5.579892
-6.084026 -8.145782 15.721231
-23.167212 23.369905 -1.180762
-15.074058 -9.474024 5.518827
-7.103656 -8.875808 14.202930
16.833981 15.154127 14.453274
33.838940 -16.708422 -18.977688
29.865196 14.599807 -27.277168
33.798199 -10.830508 -25.675867
-30.856207 18.286833 -4.860175
2.807958 -14.454779 10.152127
4.351916 -14.446362 7.949852
0.491607 6.322391 23.938856
8.157495 15.653975 6.107202
31.005215 9.899378 -21.942688
-13.437420 22.054733 -7.413049
-4.225436 22.229509 1.556090
7.802885 1.027256 -8.063566
-1.856865 11.730266 12.941214
-11.314461 2.469152 12.738813
26.915949 15.004304 4.524193
-1.493707 12.750488 13.103313
2.152347 13.259788 15.898216
-1.944742 12.378607 12.786241
-12.145527 2.674219 13.047997
-11.313116 3.887021 13.455676
-1.374918 -15.958064 1.744103
-11.908804 13.030409 2.020210
0.677863 13.080003 15.430351
29.011820 -18.494345 -31.054771
29.653252 -21.976171 -27.179186
36.561352 23.107347 -25.325172
-36.952751 16.975840 -1.575569
2.726864 -23.533470 -1.837034
4.094083 12.071228 18.025928
-32.260551 12.956875 -0.478271
32.747253 15.937898 -18.786987
33.510910 -10.626569 6.175756
-2.604905 12.937307 12.264036
0.054393 12.470186 15.998351
-23.410589 -13.003514 -4.203465
25.651245 -9.723780 13.701076
-27.899761 -9.394722 -3.748646
-32.388920 11.940718 -2.545868
-1.074238 11.621978 15.454512
5.271066 23.289743 -6.421889
5.784743 5.926224 -7.804129
-8.535602 20.298424 -7.616412
-1.603200 12.056834 14.993817
-32.515297 -14.844718 -6.630372
-15.242138 12.551869 1.490375
-15.537348 10.863734 3.447439
0.683070 -2.092851 14.266509
34.301189 23.830370 -20.081135
-37.421886 -14.897985 -2.782675
-29.796139 -23.070147 -3.231672
11.158538 -20.491152 -7.723718
-23.213087 14.465025 -7.796334
0.407014 -8.791875 -7.855182
3.184224 -12.435896 -7.385938
22.201763 14.539025 17.501528
-35.464066 18.888678 -0.699057
-34.716496 20.190054 -1.338177
-28.321766 19.747816 -7.799400
12.511084 -20.370430 -8.057172
2.231596 -10.906532 -7.943679
5.337302 -14.483903 -8.190321
35.364067 23.431864 -15.123524
5.402119 -23.308683 1.135624
-23.683140 -13.285071 1.168549
29.536036 23.444025 -16.394592
8.717772 -17.924278 -7.427163
14.234435 -22.983885 -8.029788
25.163095 -13.016437 13.708997
25.857466 -12.745294 12.550449
22.931192 5.930808 8.194995
-3.242156 14.152843 7.756674
30.128292 -23.644051 -22.643902
30.198769 -13.636226 -32.443977
9.212959 -20.203190 1.276840
-12.224133 23.649933 -1.354221
3.760729 -23.621803 -6.507988
-7.747377 23.430590 -6.992155
8.114364 -23.321190 -2.405633
-17.041996 23.434031 -5.684992
6.670370 13.743712 19.388889
-11.590618 -4.423515 12.059042
-1.424009 -8.822204 -8.072363
7.631450 13.267817 22.620361
-23.921713 12.390491 -7.900770
-2.227758 -18.012667 1.634080
-32.476128 21.309456 -7.327662
-32.208523 12.343515 1.489043
7.192069 -18.298536 -7.616285
32.438534 17.149406 1.463367
5.142012 -23.575399 -0.523575
-35.823154 18.921759 -1.497499
-6.032729 4.549203 18.086071
28.442604 8.879487 -19.592945
-32.500809 15.520363 -1.334441
-32.020912 15.868298 -0.568999
-36.962002 15.525501 1.803681
1.468628 -21.926611 1.861751
30.619770 -22.661982 -27.457449
30.851086 -18.629356 -30.311691
-36.098911 18.544344 -1.470027
13.089274 22.092571 1.727701
23.201515 -13.120244 14.861426
-31.479559 17.103710 0.693434
1.434538 23.514505 -4.729570
1.983319 3.675370 13.984613
-23.637104 12.265496 -3.349233
34.969769 9.291752 -21.727701
7.948080 15.624368 1.512987
0.987029 22.308153 1.624976
35.089676 -15.089770 2.621048
26.962513 -6.389902 3.891548
-23.940256 13.509432 -4.563529
37.945747 -17.680857 -28.523243
37.305023 -19.324345 -26.150768
4.320902 -5.629076 15.078846
-10.540935 -2.859118 -7.802991
-17.498899 3.927158 -7.903144
13.155883 23.233606 -5.046848
6.236448 23.350451 1.697296
8.873761 21.257679 1.761863
29.973822 23.088133 -22.145761
-10.507048 11.624423 6.767868
-4.853857 14.514134 4.250431
1.699077 17.900681 1.920591
3.726822 16.000624 1.884081
-10.612345 13.667176 1.973764
5.085835 0.216111 7.661311
2.171725 0.713370 10.059484
33.936123 10.042082 -21.164894
4.250406 -0.053343 8.453893
3.281108 -0.473614 9.618191
3.857736 18.160038 -8.052362
11.930469 9.847974 27.621626
3.246674 17.455400 -7.836238
3.048225 0.766296 9.674683
21.857584 9.474204 17.740376
4.524157 0.721140 8.717238
-27.009764 18.235712 -4.831936
-31.219055 -17.704451 -8.069983
37.334599 18.891766 -7.680637
-31.707970 -17.336027 -7.503515
10.497914 -17.345198 -7.473625
36.621960 1.260289 3.017307
2.707016 -14.521965 11.632825
-12.485347 23.473269 -5.615115
-10.486807 2.282543 14.185222
-11.378735 23.379860 -7.439275
1.671440 -14.101446 12.918607
15.760736 -4.024302 11.213383
-19.061169 1.482935 5.621893
-15.883791 1.676671 9.148643
10.280153 -14.793744 -7.398216
-10.298084 1.751521 15.000360
34.293938 -22.522930 -26.769943
-13.480527 23.519199 -3.780873
8.098839 -12.925536 -7.522275
-16.060736 23.138578 -1.739540
-27.319464 23.242098 -7.558855
33.690414 -17.935297 -31.284094
24.164740 -6.693749 6.654335
-30.270220 -1.233056 -8.025845
-15.140976 -16.255753 -7.209090
34.281281 -16.878843 -31.205252
15.453357 15.268188 -7.803697
24.597935 15.150238 1.663051
34.573803 -23.234854 -26.204870
-0.097996 23.255045 -3.384272
18.190596 -15.265770 12.512725
26.404398 -11.587234 4.785685
25.715460 -11.702324 12.845602
-4.458109 13.866845 7.190252
24.573359 -11.284298 14.145250
37.857391 10.758758 -15.694708
37.090855 -7.006346 1.902380
-24.912399 11.720867 -6.375377
13.191957 -17.111073 1.807241
31.762346 -7.847253 7.559946
10.699463 -7.105969 28.207546
24.364059 -12.302492 10.088881
23.416800 -7.332874 16.037586
28.204842 -9.821387 -28.609533
28.015400 -20.196432 -18.028526
28.726582 -23.023973 -16.442169
11.499213 -23.341734 1.297402
30.459051 -23.260603 -18.113909
28.738291 -7.424239 -31.951141
31.230156 -10.169275 -31.787310
30.738970 -9.462543 -32.054329
-24.333611 21.250973 -7.724755
30.981104 -13.516372 -26.916178
37.529182 1.137089 -13.323655
37.621479 -4.862295 -7.409597
13.450315 -23.200554 -0.394410
7.330437 -9.439632 -7.533205
-24.575159 12.144890 1.376318
6.867475 -18.925817 0.888517
26.709517 11.654758 12.295437
-32.759079 20.936775 1.572629
30.196493 -18.629520 -22.697199
30.136332 -23.267164 -18.687317
11.531777 -14.578614 -7.423873
-28.019438 18.383890 -0.969101
12.976448 -23.133999 -0.793276
21.392998 -23.657051 -3.992749
14.277332 -22.405087 -8.051116
23.868904 -13.332490 -7.790086
31.652569 23.240538 -12.144831
22.536299 23.120781 -2.508639
-2.967658 -14.863640 2.298750
-3.103263 -14.609944 2.809339
-22.058582 10.601623 -7.443251
37.119690 18.252632 -26.500553
29.636707 11.182339 -26.137651
-30.640739 2.155079 -7.766863
-12.824042 -16.631477 -8.181854
-2.941729 -8.334011 -7.910259
20.910034 22.876930 -2.473258
19.550432 23.262043 -3.067545
-31.322996 -23.449471 0.217317
-37.271896 -17.068098 0.365797
19.407707 -23.050821 0.023792
21.175251 -1.573253 15.693460
-1.999112 10.568597 -7.748101
-5.019954 1.302055 20.114973
-3.250193 11.332046 -8.206162
-6.309157 -8.734797 15.652860
14.883130 -23.493500 -4.170217
11.537412 -3.745905 27.314264
-14.003544 12.211290 2.299344
-19.096041 23.320787 -4.531882
-9.690760 -4.921732 14.042522
22.050776 -14.379541 15.790744
13.885865 -23.891794 -0.671941
10.810854 -22.079086 1.716707
8.952028 -23.534000 -6.418315
-16.887373 23.764608 -1.890130
15.023623 1.962902 8.616316
-21.928162 -12.320636 -7.697382
-27.080868 -7.833518 -8.112335
8.936622 -12.612494 23.620707
-4.115923 -13.569024 8.555376
-14.226238 -5.011586 8.847586
37.431164 21.827232 1.754361
-36.317627 13.396788 1.464677
-1.124286 -23.029131 2.029089
-10.861517 22.362993 1.643241
33.227825 7.367959 6.023161
6.636885 1.873618 20.351946
6.058739 -9.760667 26.124058
-9.825157 -2.777821 14.554962
13.230526 4.040685 -8.223310
-17.902586 23.720676 -4.768898
32.046043 23.248608 -18.555838
28.291813 6.151714 -14.259171
-28.542864 -23.598083 1.559813
-37.294174 -14.665604 1.049011
-37.363884 -10.589032 -3.476495
29.164162 -15.464590 -18.231598
29.181389 -9.244636 -24.205456
-24.957180 -23.883944 -3.314137
23.437284 -2.243038 16.038937
-23.958981 -23.880289 -2.449462
-36.844112 -9.919995 -2.728519
10.550590 -2.832237 28.534176
29.336437 23.652952 2.014206
15.435412 -23.611082 -5.667099
17.106264 -18.214926 1.505491
-26.379671 8.299763 1.677816
7.784201 -2.163458 4.651293
0.138541 -2.360737 13.136972
5.272813 3.760703 7.240217
2.207566 4.082366 10.984237
3.204356 -6.964142 10.826591
33.502502 -18.251272 -21.982834
37.370647 -10.037378 -27.733955
34.176868 -11.859859 -26.706711
35.502445 -17.461966 -20.136747
35.342884 -11.683711 -26.028322
-1.406286 -14.331693 8.072757
37.477249 -17.859789 -18.818377
34.123669 -13.279032 -26.984249
12.988127 -17.583857 -7.223246
33.905956 -19.992630 1.814011
-24.266594 20.361113 -8.092406
5.179231 -10.583498 -7.960210
-20.140696 -11.078448 -8.075051
-25.469872 -6.279438 -7.761509
27.832293 5.854121 -31.761753
-8.421062 -11.099154 10.045426
27.618174 -23.534292 -3.031539
18.986181 8.154212 -7.341083
17.027214 22.779079 -6.315602
18.935946 23.232244 -7.582449
-22.100437 1.822341 -7.795057
7.773151 7.350483 30.853291
-11.854636 -7.494211 -7.765670
14.796354 3.597513 -7.992512
-21.736759 18.008436 -7.772331
16.995819 5.844574 -7.605814
-29.735617 18.338007 0.107682
-31.582581 11.205224 -3.823489
-12.163660 -7.991574 9.087756
3.875152 -7.181809 -8.486629
3.886621 -15.880968 1.713808
-25.711599 -1.861904 -8.067824
24.336081 -21.957769 -8.138301
-13.420217 -7.067507 9.069012
-16.153687 -11.818551 -7.840578
-30.457405 17.967230 1.919308
-18.274466 -6.807549 4.547518
3.146159 -15.155488 4.146832
32.537670 15.416900 3.358658
25.266645 -9.767875 -7.649058
33.283909 10.849796 6.171583
33.018547 14.848145 2.734891
-5.130098 20.608150 -7.378643
6.861974 9.002053 -7.744343
6.876503 15.366891 2.890590
8.140837 -0.786132 -8.028101
-15.247869 22.552946 -7.732078
24.530870 15.118315 4.736970
13.466387 15.432892 8.830442
4.697025 23.201838 -0.499028
15.673303 -11.554864 23.583553
17.580189 -11.796249 21.140661
6.110454 23.636154 -4.145905
-19.473150 15.868222 -7.743299
1.399707 -5.752147 -7.846431
-29.353861 -9.930614 -7.573895
24.236460 13.421078 14.661795
36.422035 18.146624 -24.231274
37.137424 15.355688 -27.215137
12.455409 22.661570 -7.316298
36.033875 15.842794 -26.990288
13.656299 23.804668 -6.537740
24.453466 -18.031557 1.287522
15.315276 -18.080242 -7.531672
22.825369 14.035331 -7.992581
10.210253 21.732376 -7.998870
-12.421951 22.708778 1.721009
8.741779 10.334139 -7.760278
-4.940366 15.604778 1.756535
33.901798 17.992495 -24.745361
31.683083 -19.854576 1.518607
26.819683 -16.545515 1.736087
-9.211284 20.244236 1.597972
26.631226 -7.031970 -7.590449
28.389133 -22.864418 -0.183307
37.454094 13.809443 -27.782696
28.240271 9.177454 -31.805998
17.383520 1.642550 10.776170
19.826696 -23.546997 -7.541307
-22.759163 13.523571 -7.868675
-30.071526 21.193329 -7.593990
-0.452876 -8.205745 -7.671920
6.865036 -16.139273 -7.765433
32.125839 4.444055 -32.273315
-31.431555 21.659361 -7.896174
-13.696525 -10.029270 6.653675
1.308733 -11.237201 -8.403559
13.326994 -23.045073 -7.439534
2.128967 -12.294555 -7.654453
7.745352 -16.896944 -7.734373
32.017200 -23.454544 -4.196706
1.009577 -10.462613 -8.152773
24.927402 -6.174792 9.892479
20.159359 -3.238153 16.030107
25.212631 -3.250720 10.776695
-9.024001 -9.014320 11.673748
-8.607943 -9.668071 11.917444
23.898178 -2.561975 6.965353
27.899244 6.195370 -14.639180
10.103354 2.487136 23.785536
-24.945761 -23.452957 -1.981341
-37.368118 -10.496600 -2.348269
-24.091908 -16.216156 0.094221
-30.938377 -10.588854 0.413222
22.806818 -0.150170 8.107412
-29.915804 18.421976 -1.020066
35.603340 -7.314750 3.699795
24.512978 1.852294 6.406410
15.844743 5.789226 13.623826
3.660818 -4.692995 28.258339
-23.126610 -23.563490 -1.040572
6.246627 1.897750 19.646965
-37.791218 -8.118544 0.168387
28.851719 -22.911448 -19.197073
28.645351 -10.742738 -32.426048
-24.909632 -23.409691 -2.326635
-26.647186 -23.554567 -4.130597
-37.756248 -11.569367 -2.551862
-37.490604 -12.487840 -3.347405
19.741158 5.529637 17.940228
37.361324 7.154433 2.173082
37.886673 8.089097 -0.219931
37.813374 1.596160 -27.449728
37.478058 11.198690 -1.956954
31.623583 7.278107 7.243911
22.090061 6.573339 16.400965
37.621750 9.665619 0.396313
37.318890 -18.277775 -7.249434
10.725280 6.941716 28.660110
33.164871 23.525742 -9.108796
35.087410 23.251369 -7.214731
25.946774 6.830543 13.212404
-0.132979 -1.423437 12.928532
2.287298 4.451920 13.294465
4.927114 2.249687 7.489849
1.692851 2.353598 10.866959
-37.287754 16.931391 -6.637269
31.363354 -18.273273 -22.082306
31.730474 -13.201041 -27.249249
-24.030340 -15.880033 -5.570584
-29.953831 -9.817003 -5.267870
22.339117 -3.269163 -7.342901
7.165854 3.397379 5.016712
0.221878 3.411873 12.121369
31.871946 -20.250093 1.301689
7.843479 4.596656 19.424522
28.906528 8.558765 6.508618
8.340757 9.360720 28.402851
32.375774 11.631323 6.878842
33.487293 -15.635566 -27.426931
33.139069 -18.077873 -24.262081
9.830685 10.963343 28.482597
7.254339 -10.135310 26.646162
33.014702 12.134941 6.093497
37.776630 -19.298361 -29.372942
37.423023 -20.411125 -28.473770
-1.328542 -10.239801 17.436934
0.649975 3.562422 13.352581
26.949358 4.089210 4.094901
-0.758941 -9.958999 18.613111
-1.019044 -6.110237 21.921968
-0.793643 -5.552505 22.799322
3.138743 4.618141 14.111437
9.276421 6.113285 7.124905
2.937626 20.246378 -8.332801
5.077674 17.276197 -8.239923
26.235596 -8.991449 11.512407
6.450278 4.982260 17.229366
6.745561 3.197023 19.328810
9.250654 -9.285020 28.939941
36.707558 -12.184972 -32.301804
34.958878 -10.265020 -32.160236
34.004143 -23.251244 -18.472412
8.712639 7.761303 11.498812
6.346175 6.724926 14.180153
36.227627 -23.521324 -21.189362
6.453629 23.172445 -1.982269
9.619136 -6.978027 28.749228
23.418770 -6.889171 15.637284
9.192964 -3.912533 4.427649
10.213024 7.158440 14.980888
9.598012 7.572740 15.750944
7.981140 -4.715860 -7.695567
-19.098331 22.441492 -8.377693
6.741993 4.052993 19.860691
13.012341 7.549822 16.449780
11.329646 6.760341 18.316881
2.613456 13.389720 17.303595
-2.145157 12.981444 12.727942
-5.898818 9.677544 14.522707
37.099625 -5.002430 -18.869190
32.194149 -9.151591 6.750441
-12.860166 21.095354 -7.171113
7.089553 1.416894 -7.327260
17.554056 -9.038096 -7.933103
-3.453392 11.830445 -7.692296
12.818101 -4.465214 -7.756747
-3.582205 21.348272 1.894564
-2.549710 10.347352 -8.219412
-0.260808 13.627142 11.718659
-4.689757 23.119593 -0.546914
-12.275127 1.763499 12.327905
7.325676 15.148586 6.370982
26.997919 -18.734896 -7.754371
38.146603 -9.809370 -13.218449
29.488855 9.855203 -21.466799
-5.387721 22.812418 0.860384
-1.532124 13.216105 12.092594
-12.125552 2.279610 12.985509
27.714634 -20.098269 -7.619108
11.504700 -3.113085 -7.789041
31.388746 -23.776093 -7.828195
22.393812 -13.334176 -7.877522
32.114510 1.134253 -31.843964
28.423429 1.145165 -28.864561
20.908304 -12.333103 -7.481338
23.961580 -15.115478 -8.014400
-11.279428 19.443560 -8.078672
16.165577 -8.472316 -8.345308
19.159145 -11.206054 -7.529852
5.271617 2.291172 -7.985156
-7.596325 15.516862 -7.616288
-14.038701 22.687782 -8.108922
7.949458 0.179862 -7.770791
1.346882 7.176607 -7.688386
23.498577 -13.890877 8.979241
-11.931669 3.344294 12.378825
36.247234 9.672707 -31.575842
35.271492 10.581144 -32.463276
35.299633 -23.398943 1.399400
36.369446 -23.158859 0.280705
33.081535 -20.886705 1.840314
26.319349 -6.735048 12.217438
28.074957 -3.655519 -11.047825
27.608168 -2.090232 -11.990024
-16.996931 5.489178 6.555493
16.196487 15.107608 18.720980
13.864611 14.934170 20.677626
-4.547425 -8.084404 17.144751
-12.452092 9.943550 7.568632
36.788311 23.531076 -11.182117
25.539419 -5.334841 11.563886
8.385427 -7.274534 12.154500
13.255865 -6.222196 22.600584
9.124234 -13.994962 19.262136
-7.652062 22.393229 1.950125
32.357769 23.073854 -6.447210
13.050505 -14.857311 13.702832
-13.095649 17.311291 1.106771
-16.232126 13.342945 1.772328
21.951565 2.481437 15.641787
7.887997 -20.150473 -8.037433
-17.507008 12.338887 1.661993
-5.684740 23.494493 -4.381689
-3.157822 23.014250 -5.890374
-9.277825 23.225445 0.042333
-8.084167 -23.212212 -7.951157
-37.419674 1.768204 -2.625550
-37.542141 6.189756 -7.577124
-13.860224 -22.991514 -2.728631
28.025352 -10.545204 -29.239088
-37.997528 5.965595 -6.049448
-11.070474 -23.758272 -2.896624
-37.388695 3.089873 -3.051903
28.047657 -20.509182 -19.587269
-8.256112 -23.837475 -5.818969
27.591871 -13.272071 -27.390633
27.944181 -18.453663 -21.405865
-9.663142 8.496696 10.500406
-10.867643 -23.999168 -0.710934
28.065825 2.257858 -16.876429
-37.591511 3.213788 -0.873786
-5.790115 -23.425556 -5.201442
-36.711201 8.240340 -5.086000
26.324259 2.189239 11.474944
28.562662 -1.916425 -21.201307
23.390165 10.525494 15.819344
10.654083 9.971381 28.686457
28.736359 -11.922136 -10.903836
27.725903 18.148378 -15.947002
-0.591074 -22.308018 1.236251
-36.313366 13.943632 1.919461
-37.228336 15.330618 -2.431523
1.241848 -23.750528 -2.156042
31.282146 -23.729481 -7.122337
27.654419 -16.292677 -10.777772
28.157349 1.773751 -28.128674
28.301962 -2.584625 -24.882133
31.111612 1.682860 -32.357815
16.142006 -7.052826 -7.985558
15.546675 -16.360392 1.957919
9.040693 -0.606798 -7.714032
-12.851051 1.388008 12.492264
7.497516 2.095100 -7.628794
-12.784378 21.750822 -8.084463
-14.284157 9.589240 6.155564
-19.819017 18.328491 1.484370
35.428230 23.211624 1.296252
-22.015564 19.195641 1.848263
36.271790 -11.765285 3.330316
32.785576 -11.187046 6.313557
-32.238148 13.724971 1.340858
0.084156 -20.220814 1.933242
5.550568 14.414939 15.385335
-34.241249 14.519158 1.771042
37.725952 15.945463 0.692485
4.875812 -0.471236 18.421453
-32.328663 12.711612 -5.440707
0.670922 -0.896246 14.520853
-30.975508 17.511335 -3.116464
-1.791793 -20.313154 -8.122312
-34.738476 13.432722 -8.164455
6.441256 23.283852 -6.905736
33.823742 13.220222 -18.565153
8.747499 -14.170887 19.808054
-31.721243 18.148392 2.117682
3.431629 -16.806410 1.703243
-31.786840 14.769605 -3.009798
-31.594112 18.615967 1.670767
3.738442 -17.622828 2.071617
10.460251 0.979970 -7.931943
10.308850 15.164835 6.312188
2.022682 -16.239285 1.440260
-33.550182 20.561058 1.667862
5.615306 -19.408892 1.018059
15.179778 5.030118 -7.971826
-31.060259 11.267996 -5.311138
11.821356 2.326085 27.404236
-32.064365 12.279233 -7.714695
26.011566 9.909672 12.987468
-27.580772 9.867073 -3.617878
-12.306081 -19.532436 -7.531281
-32.887817 2.220460 -7.732317
9.371089 -14.655544 9.092074
-23.613121 18.631767 1.741413
14.676827 22.884459 2.135581
-3.878235 -14.325768 5.793218
7.007893 -17.159771 1.880860
-2.384277 -17.200600 -7.780210
-31.581585 21.354265 1.651690
-3.416780 -13.617841 9.396424
27.812355 -12.049627 -7.574093
23.463753 -8.294950 -7.175980
28.908640 1.097830 -20.737009
8.356133 7.045942 9.713363
-4.156677 -14.018911 8.272669
-6.611115 5.887547 -7.808417
-8.625948 8.041920 -8.080133
11.646130 6.521933 10.935523
31.374702 -12.197724 8.142754
-10.422204 -2.809747 14.178185
-16.842709 22.822132 -5.662232
-5.898677 -4.583451 18.500490
-1.283238 -12.804228 13.723245
-24.333927 16.120325 -6.098111
30.231218 -12.523942 8.126743
-0.984067 -10.872305 17.227180
-12.089052 -10.101194 7.851344
-1.065597 -9.666362 18.918451
12.942922 15.030883 20.369246
14.017807 14.893271 18.431812
-16.824057 19.425570 1.580381
-16.690453 19.322701 1.765433
-12.996146 15.480182 2.093039
-12.359106 10.459118 6.336720
-4.121665 -0.682872 21.282322
-1.997452 -23.597996 -2.097220
-12.491713 14.619703 1.695755
-37.085499 12.543365 -1.889345
-3.333418 0.083739 21.697685
2.296150 -1.679143 -7.742652
-15.649000 16.763948 -7.871362
-16.965641 22.716698 1.636137
-3.470526 3.182101 22.088276
21.447376 8.547896 17.626675
12.067827 8.464271 27.058958
-9.646407 14.806731 1.173394
20.564442 -15.762166 1.359513
-27.846807 9.572448 -3.741516
15.747180 -19.917482 1.549688
-31.184443 -17.170776 0.891743
-31.274273 -17.442102 0.611915
20.492260 15.022420 15.349576
-19.012802 14.721701 1.284204
-11.755965 22.632921 1.796031
24.880188 15.076321 10.905366
-14.421775 19.676382 1.800491
36.925426 -19.985809 -30.168812
32.327240 10.373587 -20.632267
30.296215 20.899277 -28.880537
36.885925 -21.112574 -27.889013
36.622337 -20.972527 -28.782742
26.697680 -9.065049 5.127400
36.752087 -20.473480 -29.347792
-0.458734 23.327038 -0.465478
37.272369 -20.768837 -28.966358
8.736232 -5.983423 18.238079
37.218861 -19.543411 -29.308357
2.087201 22.787458 -3.097922
2.726645 5.033080 14.776917
2.376987 23.552366 -4.283707
8.599660 6.184430 7.287484
-35.964569 -19.256790 -7.172649
-33.751289 -21.617561 -7.046685
1.586074 23.234707 -2.469128
-4.076979 23.979061 -3.387373
-8.474236 23.643255 1.849023
28.177929 -13.378536 5.360561
-10.595280 -0.798392 14.377985
-15.078132 23.336725 -5.202076
-12.528803 23.373857 -0.289431
-13.428862 23.725925 -1.413987
-5.452022 23.384195 -7.302289
-12.339552 23.377098 -1.431538
3.461247 -23.247301 -6.778789
-7.056654 23.861790 -6.479531
-14.181488 23.830986 0.409027
37.790382 22.697346 -13.754410
7.549310 -14.095957 16.871317
-15.053634 18.350077 1.153493
-3.471925 23.084463 -4.630871
-9.535643 22.611183 1.765412
25.235031 -2.350752 13.932244
-2.432842 23.144754 -4.513381
8.731578 -2.684471 30.592009
4.554114 4.618141 -7.992546
-9.754519 18.164616 -7.997659
-7.284923 3.096313 17.381914
-9.897257 23.685699 -0.385386
-5.586493 23.459438 -4.754295
-35.818085 18.036985 -3.980418
-10.425298 23.178890 0.216259
-5.386322 22.849598 -5.072085
18.117056 8.332317 20.650600
15.284424 9.182521 24.695601
5.916234 -7.302949 8.773302
15.209358 5.453813 11.791535
10.654398 6.573786 10.686505
27.375797 8.142552 4.921895
18.081902 6.035922 16.539045
14.914931 6.053542 12.568859
30.446381 -17.696815 -31.440714
30.887211 -22.857800 -26.519913
-37.405804 14.261091 -5.590592
-0.334688 -23.630112 -5.439541
13.887395 -4.879797 25.564152
11.493874 -2.095667 25.084627
11.341113 -3.174361 24.735832
1.601225 4.474393 11.171258
30.471834 11.770492 7.840091
5.750175 4.350306 7.356466
37.774414 21.316008 -24.123987
37.246681 11.538656 1.109562
-31.804043 16.816696 -3.508969
1.417629 -5.480963 12.015740
-12.437286 11.123801 6.592305
-3.253953 -19.633369 1.449710
-33.515144 11.216089 1.863212
1.890580 2.502918 10.714717
4.706320 4.487269 8.460958
3.016245 4.083548 9.592725
34.735950 5.985412 4.942537
-9.814456 13.194613 4.621010
9.153563 -2.661957 4.655293
23.569212 -15.149955 10.477105
1.937900 5.650706 11.297688
4.639977 5.887904 6.660588
33.788750 -17.047918 1.744295
33.357166 10.719789 -25.516392
13.716512 -3.526971 8.216233
32.277943 -7.941044 6.762539
-1.462690 23.025806 -7.799818
7.960120 13.303401 -7.622292
8.233290 1.416059 4.209053
7.345011 3.439017 4.771612
-30.171780 10.534391 -3.561795
-29.755274 5.546773 1.418067
-8.643842 -16.379984 1.629977
9.713023 5.335239 6.753773
10.663538 5.268989 7.663320
8.032715 5.553613 5.284062
15.338979 7.216989 18.902353
13.556758 6.842189 20.848131
21.695253 -23.178841 -7.404070
-24.905775 7.939637 -8.001888
-6.590726 -10.728236 -7.332747
31.697260 4.987746 7.411063
14.037450 5.454735 25.063740
12.149748 2.967893 25.106209
-32.933495 -22.118803 -2.695151
-14.074811 -11.277341 3.084987
-36.077885 -18.697895 -3.235626
16.700045 7.006734 20.278406
21.082542 8.108937 17.326088
12.349610 8.661200 26.501011
5.368492 -8.754814 25.969992
0.384644 -23.335058 -1.475072
-37.380390 14.429611 -0.697345
16.078329 8.009198 23.121679
17.589308 8.042060 21.374535
5.270213 -8.563635 25.632048
4.987848 -23.701698 -1.427301
-35.141933 20.150959 1.282049
28.462524 -23.351673 -24.179625
-35.944771 19.337347 0.490311
19.055756 11.325676 19.728033
14.340430 11.290609 25.123573
28.719055 -15.235619 -31.617975
33.409767 -23.129059 -26.030489
33.650520 -17.041107 -31.711084
20.865057 8.754542 19.003542
13.230964 8.195168 25.450960
20.328159 10.541072 18.647587
14.022135 10.213048 26.639109
-7.987351 -1.402794 16.696295
8.490870 3.332813 -7.541686
-13.270842 23.269361 -5.543487
-10.980902 1.491874 14.336472
-11.012640 23.675303 -7.840440
-32.442455 22.446541 -2.118578
7.450021 -12.341809 24.670017
8.071401 -13.691435 21.360010
-9.246887 -10.206484 10.417058
20.288609 -15.212264 15.679919
-7.948918 1.984733 17.154987
18.814487 -21.337242 1.561101
20.137403 -20.666153 1.763662
-9.311912 2.844420 15.499410
-22.566328 6.986290 1.907816
-8.237906 5.955207 14.630332
-9.779576 2.331589 14.846204
-37.165188 17.156261 -3.215356
2.297973 -23.086607 -2.547239
-36.937813 15.420573 -3.425524
-17.446796 4.242916 6.834862
28.817053 -23.414852 -11.955510
37.890751 -6.880795 -9.281207
28.522352 -3.323789 -32.054958
37.712872 -0.831216 -15.785850
1.909259 -23.156275 -3.807228
-7.937965 4.802688 16.121748
-8.120871 5.946318 15.025123
18.706142 -13.818056 -7.225123
26.922483 -23.652800 -6.309856
16.587990 10.854231 23.165936
17.837633 11.366542 21.342371
19.444822 11.812946 19.264538
-35.867535 19.409750 1.395508
13.826658 11.617211 25.070391
-10.432889 4.677483 13.108617
27.962706 7.651940 -20.280430
-8.872670 7.063321 13.381092
4.511479 -23.538149 -1.423309
18.331501 13.247010 20.924450
15.125803 13.112027 23.489038
5.955831 -19.777330 1.370309
5.011420 -20.377821 1.793136
-34.273071 19.239264 1.422471
-34.401188 19.191561 1.807430
20.700237 12.016537 18.351921
12.902033 11.455676 26.150675
3.392507 2.745047 27.303503
2.798128 12.004561 19.372042
22.266909 -6.320971 17.046337
11.044811 -6.375411 27.686661
14.173183 13.381935 24.509239
19.336290 13.006012 20.112835
-0.122405 2.549746 24.184454
14.090967 -3.830958 8.761837
12.502587 13.472937 25.443544
18.113739 14.490011 20.527256
15.204623 14.096987 23.705704
18.823032 13.921283 20.152710
14.181046 13.218706 24.768879
-0.455458 2.499890 23.666019
37.191242 20.042801 -3.180825
37.298592 3.721710 -11.061293
38.338394 -2.230742 -6.077214
37.294994 2.360625 -1.388235
13.215389 13.973545 23.920044
37.261974 7.859627 -6.894624
36.768219 10.093891 -21.979370
27.864841 21.983641 -7.867464
-2.259414 16.794853 -7.304626
2.865925 12.238985 -7.900467
-1.443700 10.749588 16.680355
3.199497 21.637863 1.837780
7.292772 17.155556 1.366096
-13.878500 18.752151 1.736667
35.103821 21.883011 -28.414753
35.670773 7.843786 3.028642
32.407101 7.539423 6.547014
0.118408 11.853943 16.944784
1.470477 14.539455 12.910204
32.064751 14.329879 -17.943541
37.655300 -7.926287 -14.421454
37.199631 -6.737393 -16.331379
36.731873 10.125647 -31.848581
12.752417 -3.512293 -7.798615
13.931729 -2.792780 -7.610609
36.762146 -24.084820 0.591192
10.185114 -5.099346 -8.149225
32.306244 -23.496054 -3.132170
32.310734 5.212952 -32.327259
36.971302 7.450134 -30.582388
2.935890 12.485860 17.680653
11.596737 -4.358281 -7.633777
37.378639 -21.562592 -0.998542
1.654101 -9.790894 22.812273
27.364235 -18.272913 -7.491177
4.428869 12.725361 19.240410
-0.325857 12.870337 14.802210
37.045433 1.198516 -23.533590
37.266579 -15.008496 -8.837895
2.141373 11.869347 18.587969
38.305313 -6.185914 -0.347550
37.013519 8.213421 -15.243496
36.809296 -9.896727 -31.956360
36.520592 -13.621953 -27.462994
3.541767 12.956926 17.426617
36.421623 -22.749596 -18.447666
28.507473 21.302805 -19.121481
36.634274 -18.586895 -22.539360
-25.192375 17.547373 -5.625218
6.004446 12.460974 20.184181
-25.319963 17.846830 -6.381688
5.612376 13.333314 19.335165
-0.420663 8.747530 21.565680
-29.154999 23.415499 -0.878854
-3.955545 14.371395 6.842196
0.177866 15.457364 1.778388
-11.104498 -7.646525 11.149183
-24.734501 23.484602 -5.927855
7.000670 -23.590918 -6.759332
-7.652575 15.067970 -7.751825
0.501896 6.416049 -7.792960
23.815025 -5.284619 9.149749
8.158804 -21.000093 -7.993495
-6.869633 14.492745 2.876458
28.366203 14.266000 -31.683893
11.941047 14.647346 22.806782
0.189073 3.315492 24.376553
30.943604 23.569090 -15.777013
13.321876 23.117889 0.782942
26.309488 -13.597032 12.575898
-17.338957 10.041078 -7.553755
-37.630493 -9.752745 -7.433442
-24.365044 -23.268511 -7.943229
-4.364258 -3.672624 -7.983773
37.737598 20.176792 -4.627398
30.965401 12.962002 -27.573853
28.621065 23.772120 -17.949837
11.068386 23.292030 -0.209083
20.322948 12.699949 18.542118
13.502992 13.080394 25.891872
23.148006 16.003155 -8.075706
9.200724 13.537579 22.068928
11.996781 14.695198 20.951302
-21.623005 23.297743 -3.231439
28.145304 16.515366 -31.658899
-17.099936 -23.581211 -3.723280
-37.563717 -3.338507 -3.836632
10.218102 14.141798 21.501442
12.648988 23.490646 -3.572082
-37.298183 -15.217628 -8.018516
-14.467103 8.341947 -7.498096
-37.013245 4.472381 -7.711571
-6.186472 -0.587762 -7.682575
-9.806796 -22.424271 -8.192703
-29.298168 -22.997490 -7.980913
20.157516 15.014691 11.417232
-32.215641 -8.978383 -7.555631
19.318476 -10.456226 -7.847492
-33.601299 5.996363 -7.661400
-35.737644 -12.368919 -7.516110
-23.113104 -17.711535 -7.438631
-20.232777 3.162900 -7.758553
-26.298325 -21.743229 -7.911859
-10.774235 -6.057140 -7.730400
-8.003251 -20.421598 -8.009142
-35.708614 -18.961576 -6.655619
-6.503832 -15.027203 -7.588281
-28.350979 7.400744 -8.418828
-33.126823 -21.980108 -6.463047
11.574725 -14.772387 11.339180
25.194347 5.838061 6.667645
28.104017 -19.244967 -23.596130
28.032366 -14.611284 -27.829575
21.149248 -15.326533 17.760355
-25.811316 7.453487 -7.798043
-7.494370 -12.354561 -8.029558
-1.075209 4.208090 -7.767491
-10.307371 13.688603 -8.138453
-1.978083 0.676901 -7.718532
-13.834935 12.389368 -7.726729
-14.368679 13.444667 -7.470550
0.043175 -0.647965 -7.968470
27.959057 4.999169 -31.343927
28.256838 -14.993634 -11.718904
13.163714 5.740177 24.035143
8.955242 -11.451244 -7.762167
-25.379353 23.083000 -7.778828
28.050598 -2.525593 -23.160175
18.015598 -13.563069 -7.825940
7.873230 -2.465506 -7.669557
4.414340 17.277578 1.931687
-16.548016 22.058891 -8.073092
3.177318 18.728874 1.497883
37.280819 8.394898 -32.654755
37.008373 -9.349431 -14.925197
36.890553 -6.235949 -17.951849
1.222316 -0.205950 11.602965
5.863029 -0.174851 6.814059
36.945156 8.631873 -32.100456
37.764549 2.805830 -26.804840
37.611412 -10.758018 -14.191698
36.742523 -23.380877 -0.568815
13.465480 -4.186694 -7.382200
37.849800 -17.848953 -5.783055
37.668095 -5.162004 -18.934673
-20.549698 12.109552 -7.664814
9.377930 -18.740391 -7.724041
-2.125243 -6.319342 -7.779136
-21.213057 21.420277 1.753520
-17.839775 2.410064 7.097455
6.791020 14.564266 5.999172
-11.933069 2.273507 12.003864
-12.352437 1.613559 12.864489
23.441719 -15.987298 -7.421857
-36.572395 17.980406 1.009389
0.179341 7.124691 -7.171468
-6.963980 14.554119 -8.031996
-7.854187 13.860335 2.870388
15.452739 -8.350261 -8.270580
-15.643619 22.998102 -7.923140
8.423024 -0.505776 -7.953790
14.252628 -0.370477 -8.446918
11.350343 2.154391 -7.547390
17.625731 -17.878103 -7.812849
-12.510178 12.701205 -7.812041
-1.189880 1.986199 -7.225767
-16.387547 1.481165 7.971550
23.197672 -22.562330 -8.014735
-15.628806 17.658617 -7.383628
2.844682 -2.220159 -7.740655
-8.140391 13.884812 -7.888402
11.105719 -17.634562 -8.036881
-0.112545 6.536965 -7.652690
-8.381849 21.067623 -7.830982
7.665467 6.496700 -7.461656
2.795262 5.903659 -7.953390
-8.781016 16.265779 -7.835478
-8.285580 17.320957 -7.864917
1.665895 4.700127 -7.165115
-37.638546 -14.595844 -4.198127
17.461218 14.720566 2.388717
-28.467358 -23.385662 -4.271936
24.124178 14.155000 15.570230
-28.719851 10.025566 -7.071842
-31.964949 -13.967144 0.153550
-28.665283 -19.185024 -0.337610
-4.618634 4.811668 -7.950802
9.253229 -14.681935 6.016869
-9.819186 10.169013 -7.669331
-31.425495 -2.447631 -7.540689
-7.875143 8.543816 -7.956960
0.413027 -5.314499 24.154934
-36.398430 2.312307 -7.600437
-5.946358 6.877729 -7.841145
-16.634684 -17.330681 -8.293799
-12.172691 -22.625128 -7.832211
-1.360136 -2.631922 23.099615
-36.069824 1.620630 -7.855975
-10.686389 10.638770 -7.832817
-3.621850 3.937537 -7.789739
-12.586768 -21.953787 -7.418997
-32.028934 -2.400074 -8.145857
-16.367456 -17.898148 -7.789460
18.491959 5.810700 15.759724
-14.864791 10.284981 4.328598
-14.872127 13.450369 1.869433
-27.229652 -9.507589 0.766793
-18.688499 17.236401 1.200407
15.815965 14.891057 13.202385
-20.879087 -0.196008 4.608669
26.262316 -14.567985 13.061563
29.449316 -19.369766 1.152967
6.001177 -1.775447 31.602381
