ply
format ascii 1.0
element vertex 1568
property float x
property float y
property float z
end_header
37.815655 -9.873441 -15.988049
-27.867205 -3.891993 1.327057
-17.775267 -13.603292 1.985754
29.551617 9.912310 -24.726168
-3.169555 -13.850298 7.796429
31.788584 -18.400898 -23.612415
37.553478 -16.510817 -14.920617
31.784216 -14.605717 -26.761398
37.332638 -5.818399 -25.123907
37.670353 -15.224694 -17.796589
37.409286 -8.662319 -23.692934
18.784822 -14.983637 16.192680
33.989605 9.442539 -23.214241
8.084377 -9.900684 28.104050
14.664317 15.037940 3.298580
31.757271 12.514812 -18.310863
19.756451 14.841304 8.676674
37.280670 -15.204911 -27.998615
37.667362 8.218540 -16.002831
37.710770 -6.888338 -0.934460
37.347134 -19.554026 -24.618786
37.290184 -4.545249 -19.572470
37.667885 -11.145507 -13.208969
37.481445 18.921749 -18.274319
37.407932 20.501192 -21.654688
37.514713 -5.491715 -15.966011
37.693642 -7.322001 -14.533867
28.321447 -20.641268 -19.410963
28.103468 -10.764198 -28.994200
28.194901 5.139493 -29.382658
-37.006241 -17.064577 -5.426497
-31.828886 -22.807383 -5.574762
28.168745 1.722483 -27.631804
8.763265 -1.754662 3.836969
-35.417667 19.677656 -7.046091
27.839195 -0.536016 -19.740171
27.909172 -10.702642 -9.598886
28.335552 4.012288 -25.141403
-14.845129 6.864296 7.455440
29.532515 -23.721895 -7.440548
29.883867 1.554604 -32.112419
27.915686 5.282060 -26.671618
37.457745 -7.108029 -11.288480
37.306465 -2.416565 -16.016342
37.314503 18.198433 -20.798874
36.909966 -6.352438 -31.772520
36.606678 -23.175257 -15.293674
35.889912 -23.428387 -13.153256
35.868885 -4.517891 -32.042736
36.147015 -4.935390 -32.215252
36.046085 -23.132454 -13.610460
37.887405 3.905184 -5.889638
37.528873 -18.807419 -26.768183
37.534595 2.532286 -5.041449
37.649342 -17.703325 -27.520763
9.230099 -3.863067 4.061151
37.308086 -7.102693 -29.621750
37.673470 -21.224607 -16.052694
36.673920 -11.583553 -26.605385
37.084881 -17.672720 -20.306112
37.592602 -17.963802 -20.184578
37.201237 -11.659733 -26.632975
34.525326 2.243428 4.662005
28.704355 23.677141 -14.868527
37.321724 -5.924756 -28.890017
37.194237 -5.709017 -28.499603
37.347584 -20.219028 -14.832334
37.417995 -19.494623 -14.520830
37.813652 -5.406656 -28.243412
37.555759 -19.303810 -14.303111
28.073830 -15.662658 -27.422380
27.966227 -18.548731 -24.312799
28.911560 -18.265354 -23.643545
29.281467 -15.191973 -27.347382
32.459194 11.400700 -32.187733
37.443810 -20.682011 -1.339523
37.586124 7.565843 -29.487795
30.409147 16.642349 -31.486311
37.277706 1.047534 -23.393156
11.515585 -4.793493 -7.944849
37.668976 -14.544115 -7.649255
37.460953 13.187032 -14.720902
31.740412 18.102489 -20.607334
22.408644 -13.725667 16.706360
32.893635 17.647207 -20.019270
31.081511 -12.603517 7.930318
-11.195501 -9.977621 7.909013
27.953836 -7.540186 -29.433968
28.395288 -20.422142 -16.435610
9.110119 -1.843777 3.478038
3.144153 -7.586489 25.246704
29.196815 16.822565 -26.225481
28.181517 18.865307 -23.700775
28.304228 17.158545 -26.266094
3.065802 8.395197 24.613363
28.384743 5.908385 -24.524715
35.864033 17.146000 -31.377024
9.661740 -10.774336 27.732384
28.312506 -8.232712 -8.762152
28.098274 7.317228 -24.155876
27.835609 0.062013 -17.079556
32.662743 -12.556654 -18.622091
32.850498 -10.057609 -21.069664
32.806995 -11.573181 -18.909925
32.786129 -10.371814 -20.092701
37.856369 -2.172457 -3.397959
37.332577 5.684936 -11.247808
24.169874 21.264708 1.507638
-2.091213 -13.664592 9.826280
26.444458 7.767825 12.235618
35.481789 -9.207774 -32.009861
35.107567 -23.773308 -18.008888
35.240799 -18.260195 -22.761986
35.350246 -13.937686 -27.346577
-23.796495 7.685093 1.889833
-15.238872 -8.730478 -7.867414
-22.688902 -1.051616 -7.649817
35.712757 7.185546 -31.823652
20.387316 7.575399 -7.751948
35.422943 -23.456923 -2.055116
28.173971 15.661879 -15.179425
31.767672 -23.046999 -5.732939
31.762989 3.275448 -31.953829
28.088209 9.162927 -8.555553
37.465298 -16.544947 -1.474279
37.641327 8.208077 -25.466549
37.355637 10.159213 -27.316143
37.639523 -18.478498 1.260118
37.557961 -7.938575 -9.746899
37.307693 -1.132427 -16.895744
35.001507 2.418210 -31.965197
35.442329 -23.392952 -6.185201
29.073486 -18.544353 -31.249077
28.957626 -21.863010 -27.308929
31.696047 1.693604 -32.329403
31.386778 -23.549402 -6.979523
33.468189 -9.612176 -21.572435
29.860535 23.419628 -11.635299
33.503868 -12.817189 -18.436642
31.886711 23.026958 -13.941999
28.050343 20.712055 -18.020266
31.602783 10.152105 7.423497
22.701132 9.690672 16.298857
37.475647 10.994277 1.223114
37.041878 9.986088 1.640783
11.086652 10.200374 28.098576
33.530430 5.932006 5.557207
37.453304 14.339217 1.872742
17.522522 -2.827034 11.826524
37.319271 4.424980 -1.748176
37.416290 3.027813 0.316326
37.339336 9.212320 -6.075596
37.549442 7.080650 -3.658259
36.821945 -23.608637 -3.816360
36.415821 5.240464 -32.105534
37.466599 -13.130216 -6.687008
37.536942 2.183598 -21.588972
28.024347 23.577135 -3.845996
-21.636589 18.928411 -7.796338
35.873432 23.553314 -7.478024
3.897207 6.938737 26.129507
4.854548 -7.795586 -7.672896
37.739391 1.795138 -8.832207
37.549435 -0.160029 -7.308092
37.668102 9.754004 -26.215908
37.503170 5.346028 -30.642181
37.338444 -17.758963 0.545086
37.472950 -21.920469 -3.831637
30.026777 15.944667 -27.090611
28.041624 1.843942 -31.290504
28.206367 -17.672611 -11.562301
28.274403 -2.766546 -26.176043
28.078135 1.180651 -30.640322
27.699722 -18.041437 -10.890700
28.153702 -2.049235 -26.935461
37.601215 -22.569853 -25.071167
37.418770 -15.917185 -31.227451
3.746732 -2.834641 28.623007
37.424931 10.852696 -4.801079
37.605473 4.076605 1.521701
29.158796 23.218590 -21.115114
14.113022 23.564022 -5.657489
37.135181 6.257561 -29.469276
37.681950 -12.268450 -29.155127
37.136234 -21.144190 -2.864839
37.403366 -20.564177 -20.798058
37.282948 -14.353654 -28.237951
37.363052 4.441395 -9.191662
37.417778 -0.693236 -4.746224
37.282768 -19.452469 -23.311483
37.625523 9.551288 -29.730511
37.734234 -20.990496 0.507132
37.462887 -17.436470 0.060273
37.468006 8.985058 -26.528175
37.269089 1.926532 -21.593662
37.616043 -13.171675 -7.077633
2.247822 -8.554560 23.484747
34.204727 1.379811 4.658411
33.714233 0.856664 5.536761
27.892134 -17.676418 -9.105515
28.230045 -0.701517 -26.200472
28.070038 0.889365 -10.271815
27.962637 -1.575360 -7.482316
28.117706 1.685715 -10.505028
28.345406 13.314744 -8.086375
12.604874 4.581119 24.178856
35.476875 2.341105 -31.733313
20.155579 2.132373 -7.700144
35.324245 -23.225224 -6.795371
27.886765 5.002591 -12.800354
37.751099 14.768987 -4.295232
34.100258 -7.861012 5.048309
36.492062 23.487316 -10.690074
35.562843 23.461584 -8.963213
35.179390 23.544798 -12.931646
33.970329 -23.604546 -2.995306
33.650158 5.150131 -31.855221
-5.141898 6.460292 18.604961
34.310669 3.201734 5.201899
4.552520 23.508347 -7.279465
33.386215 3.411808 5.621048
32.794537 5.124303 6.453800
7.021715 4.473869 19.393976
37.407505 20.056652 -1.140731
37.467075 20.472502 -0.488353
-0.607431 -9.760120 19.444941
28.122005 18.001514 -11.058333
28.273521 1.113435 -30.887714
27.831467 -22.154470 -7.947270
37.545349 19.432207 -8.832080
37.660389 14.788815 -13.735180
37.442348 11.234206 0.400283
34.645893 9.030950 4.406877
37.433483 -10.924711 -31.919441
37.723885 8.140777 -13.018988
37.250496 -4.591313 -0.899234
37.501308 -23.400160 -19.196180
-0.820348 -7.686363 -7.618051
37.738750 -18.283245 -2.469462
37.079994 6.302197 -26.820641
-21.738117 13.595355 -7.858799
37.567669 8.182277 -10.829138
37.705021 -2.178723 -0.233117
37.246040 -1.599141 -0.302650
37.647114 8.225170 -10.117358
36.270702 -12.615633 2.404803
27.989744 -15.417356 -9.907761
28.154089 -0.956305 -24.038836
31.149452 23.257605 -13.283487
36.060459 5.032953 2.615468
34.967087 6.405359 4.369747
37.310970 -9.034849 -26.728880
28.666910 23.531136 -2.862225
37.185951 -17.579706 -18.084743
19.830433 -3.244653 14.110987
37.523571 6.225323 -28.908939
37.220512 -20.906597 -20.619400
37.611095 -5.646802 -5.865647
37.710209 -20.255760 -3.185464
37.672272 3.141364 -14.344654
37.408291 -12.277104 -29.739754
37.262074 -9.082670 -13.942205
37.486645 -5.215494 -17.702671
37.286289 -17.920849 -5.284421
37.286110 3.359632 -26.425310
28.731293 23.259174 -6.178802
37.724537 7.148136 -25.183365
37.636917 -15.795066 -1.606428
28.059477 5.004617 -14.881090
28.017519 6.932383 -8.010768
37.317959 -6.446722 -2.211599
37.651043 6.191668 -15.420005
37.567936 21.218279 -5.559544
28.137062 -2.953576 -22.930359
28.129717 -14.183733 -11.460594
32.470383 -23.300020 -11.506578
32.389660 -2.615059 -31.901937
34.535286 1.966090 4.453952
36.380466 2.042206 3.073776
36.063034 3.285160 2.753221
0.968909 6.571480 23.881357
35.666527 2.857508 -32.265442
35.945232 -23.410667 -5.980680
28.293911 -0.670242 -32.228291
37.569839 -7.015189 -11.971720
28.172712 -23.430883 -9.719611
37.488159 -3.271181 -16.162346
28.294230 -1.667383 -30.846741
27.778580 -21.947367 -10.490374
33.134113 23.266949 -11.014313
27.912270 9.912445 -24.756279
28.104412 -6.709967 -8.332315
27.933523 0.608229 -15.764378
31.379417 23.554035 -11.602946
28.085392 20.848541 -22.597092
37.527611 14.434479 -0.006087
33.679882 7.906028 -32.273026
34.142464 -23.136248 -0.785732
37.617180 -4.574363 0.544997
29.702297 -5.054677 7.216349
37.474148 9.368047 -13.177456
34.565224 13.080068 -26.857077
28.339073 -22.937979 -21.042381
28.119240 -12.309647 -32.092335
34.860004 23.786316 -16.246424
11.565273 -2.419010 -7.336247
-4.553633 13.915819 7.945412
37.188335 9.712175 -30.250317
37.432037 -21.543297 0.883688
37.465195 21.227451 -25.782354
37.175041 13.594822 1.634225
9.154661 -18.068304 1.816815
35.519051 -3.304055 4.043561
-1.466258 -9.457739 18.903629
30.023952 22.058819 -27.658445
35.222279 11.822461 4.116981
33.550602 -14.038641 5.428097
34.079506 -14.075670 5.428883
35.780952 -12.905843 2.990552
28.181093 21.994225 -14.194881
33.296497 -23.632572 -9.889805
33.497650 -0.957982 -32.011150
37.443272 -9.329458 -10.068083
37.318928 8.182990 -27.325747
37.219952 -5.631424 -22.950895
37.838272 -13.449755 -14.548006
37.354500 -19.054909 -0.620504
37.267075 -23.622686 -4.898461
37.380459 3.677866 -31.497717
37.807686 -1.174131 -17.994371
32.766254 3.577066 -32.227386
33.197140 -23.567635 -4.971198
28.181917 21.003374 -14.903088
28.458633 23.351059 -10.209189
37.672325 11.902814 -8.764556
37.718906 13.200245 -9.284801
14.081570 6.194676 25.106602
37.721153 -0.880987 -20.393467
37.279461 -11.305887 -10.244655
1.394833 7.137297 24.049709
28.096518 7.111046 -20.375750
37.105808 5.290572 -2.950158
37.614559 6.252073 -3.749676
31.931602 23.409048 -19.512728
28.850716 23.366240 -16.901098
-35.007641 17.483505 1.727177
3.462987 -20.966465 1.800851
29.722521 23.773275 -15.988753
37.726471 -12.131511 -8.847402
37.801800 0.689858 -21.118652
37.538197 -14.039061 -3.906187
37.279472 4.708429 -22.479568
11.539572 14.911848 11.291004
37.713741 -11.976225 -6.054880
37.179611 2.812601 -21.093178
28.165119 14.680868 -16.507113
28.184811 22.919224 -25.009092
28.168903 -3.706796 -22.598316
28.319645 -13.834352 -12.759373
30.546623 -16.032692 -26.765057
30.805847 -18.434467 -24.946146
32.621490 -7.505635 -32.136368
32.822853 -23.358721 -16.482069
27.806211 8.313160 -17.141588
37.368744 6.982036 -4.240569
37.146473 4.701720 -5.926124
37.482132 2.604443 -4.848747
37.553352 4.688176 -2.354191
37.597286 -3.067113 -21.790985
37.880157 -13.090447 -11.511409
37.518158 17.700224 -15.910898
35.477486 23.569811 -15.243752
35.733475 23.458529 -10.834137
28.104918 10.763184 -17.083826
28.160439 -9.800412 -17.429520
28.256216 -8.582141 -17.778690
37.530884 14.438512 -16.530119
37.533905 20.528006 -9.396117
28.296593 19.031433 -15.872215
21.225185 -8.309646 18.086773
27.791849 19.905849 -17.140923
12.578084 -7.861555 26.661478
37.695065 10.921145 -31.818796
31.941601 16.449575 -31.621571
37.791279 6.796210 -27.385946
37.767586 -18.823589 -2.336069
37.391083 -17.180246 -9.270182
37.576984 0.156848 -25.854002
37.471283 3.011967 -26.068682
37.596035 -17.177261 -6.092568
37.533024 -0.289012 -19.701365
37.692818 4.972596 -24.817047
37.738487 -10.612675 -9.026337
37.387371 -16.139141 -4.388124
28.120296 -1.684173 -11.525748
28.129969 -2.658755 -10.786242
27.944496 -5.253634 -16.154285
28.070930 -7.381591 -13.706152
27.871490 -7.060414 -10.837005
28.099836 -2.095472 -15.727124
27.739120 -6.825195 -7.630771
27.851160 1.231331 -15.730799
10.148544 3.480648 23.135345
28.730543 6.690116 -8.347841
17.193632 -1.614720 11.148310
27.934387 4.475686 -10.535955
28.132113 9.289634 -8.424313
28.009375 7.072445 -9.995097
28.252110 7.742602 -27.621647
37.488899 -2.419730 -8.159991
37.442024 0.913771 -11.357330
32.746811 -23.410852 -13.615147
32.995678 -5.184498 -32.292046
37.462982 -18.722504 -14.840012
37.553001 -5.796718 -27.540751
36.470303 -0.702471 -32.020687
36.653477 -23.707766 -9.919170
35.813953 -23.578205 -12.617064
35.957790 -3.964180 -32.473911
28.323322 -19.101528 -14.124998
28.246040 -5.696729 -28.201588
8.572440 -15.022902 10.813843
38.042645 14.641037 -12.348972
9.350885 -12.443730 24.378128
35.540024 23.630985 -17.438288
37.634293 16.498550 -28.801884
37.326920 23.328978 -0.558399
37.412094 21.425400 1.293791
37.241486 18.043377 -31.272081
37.519249 15.310587 -27.997149
6.050097 -5.225022 16.767632
37.339157 20.371441 -23.023369
37.477329 22.372301 -20.495272
7.162638 -6.055779 17.048811
13.132088 -14.353437 22.071276
17.191216 13.626195 21.903933
16.256887 13.604486 22.798647
37.397320 5.418492 -15.809584
37.592720 -7.332655 -3.053791
37.333084 3.269512 -15.410492
37.456860 -6.762306 -5.527853
37.556835 -14.174100 -0.165339
37.474339 8.768827 -23.355059
28.212948 15.334679 -9.915941
28.465805 22.749548 -17.505106
37.395199 11.008653 -10.584720
37.283020 -18.599569 -5.086408
31.604094 -2.253588 7.822570
37.189697 -2.172230 1.902115
37.847164 4.068754 -26.954836
10.394430 -1.945840 28.331825
22.571369 -2.307065 16.081070
26.724220 -23.356691 -6.365082
29.605970 23.717222 -9.858411
4.048959 -12.915118 19.233908
-0.212582 -12.669051 14.775252
32.362289 8.443210 6.356812
16.684391 -6.067641 16.030775
37.523315 23.055372 -15.245998
-7.681688 2.843241 16.458479
34.921173 -20.359377 1.786322
36.745773 -3.219028 2.272732
-0.508178 12.838492 14.593747
32.540936 -4.786506 6.747611
27.788630 -6.642292 -27.773506
28.050989 -18.873938 -15.109141
-18.071030 -0.636667 6.464904
37.275784 5.104720 -28.591555
37.519184 -19.570766 -4.136333
37.475037 -10.985454 -29.937653
37.489189 -21.655582 -19.767788
31.708191 1.584560 7.284248
28.355726 -1.461078 -29.866030
27.989511 -20.460100 -10.368860
7.289929 -1.136530 5.678226
9.482037 23.282280 1.402976
7.104179 23.547810 -1.243565
0.272241 -1.017991 12.708745
24.514965 -9.487311 14.146681
27.875761 -3.200591 -14.919779
28.028097 -5.546537 -10.751712
-30.585775 -23.095512 -4.871023
-37.064384 -16.433840 -5.059857
28.326777 -6.292179 -11.599158
28.608782 -2.062785 -14.373476
18.007204 14.670297 20.979040
15.925195 14.843960 23.243961
37.648994 21.358944 -0.927595
37.823891 9.792161 -2.362219
37.658772 6.335442 1.091870
37.486073 19.866152 -1.782313
28.076609 -1.372628 -22.637735
28.428223 -13.671464 -10.344087
28.133183 -8.910478 -11.603721
28.166956 -2.827661 -17.891558
37.552757 11.778777 -11.057004
36.587971 -2.699320 2.443124
35.631573 1.908370 3.905624
31.188913 18.492271 -22.641378
21.953276 23.301399 -1.871354
37.921837 2.231289 -4.024233
37.230480 6.711581 -8.941634
37.841171 -0.086707 -2.322232
37.428982 4.442409 -6.632305
28.266287 17.387768 -13.631861
4.120243 -10.644867 23.815832
27.960148 -5.029495 -9.887516
28.228798 -1.113581 -13.985216
12.601273 14.729405 20.317572
28.080742 -0.230531 -10.634492
28.364233 -1.534059 -9.426004
14.734084 14.948984 18.081043
37.688229 2.366317 -12.916456
37.352009 -4.539250 -6.362767
37.564758 2.980329 1.290946
37.242443 9.949654 -5.476353
36.403702 17.664303 -20.332439
35.118889 10.126149 3.648201
25.966545 9.950971 11.076806
28.214622 -9.842808 -10.946650
27.892792 -2.091309 -18.492603
28.476400 -0.949114 -15.023913
28.195463 -6.816473 -9.814888
33.040089 -2.099121 5.906254
29.214502 23.572495 -12.655603
36.217892 18.289877 -20.640802
37.328598 -12.396605 -16.046448
37.497040 18.009905 -10.852799
37.707405 -7.008795 -21.048733
28.094343 -7.147931 -8.746859
28.165573 0.026682 -15.787967
27.608593 1.512835 -16.948345
28.268448 -7.198187 -8.196107
27.963991 0.489673 -16.036629
34.180752 -23.776464 -21.150024
34.632046 -12.999455 -31.874926
37.468590 11.483967 -10.036266
28.280233 8.406037 -29.330748
37.728699 6.412577 -5.796549
37.180305 5.544652 -4.363686
37.296467 4.672237 -3.386839
37.499813 3.294299 -1.938762
37.492836 -15.564309 -12.667210
37.305130 -4.141768 -24.196440
27.897137 -8.714500 -10.350585
28.243183 -6.205603 -21.829428
28.203590 -1.465149 -17.183279
28.185404 -13.373358 -15.046645
2.437043 12.060578 18.987410
27.892265 -17.215326 -31.217361
28.061646 -23.024239 -26.073109
28.245447 -7.852691 -21.972185
27.797922 -13.466863 -16.363405
37.499821 3.860032 -9.112733
37.446495 -0.196490 -5.042290
37.643871 -18.998722 -23.489277
37.590038 -14.555711 -27.425543
31.212811 -6.316068 -32.125965
28.070568 -5.924933 -28.836157
28.221432 -19.862503 -14.649701
28.421001 -20.135914 -14.059623
19.398396 -23.677134 -3.123729
31.351900 -23.248053 -14.675842
28.100613 -5.281272 -29.197376
2.170411 -4.314265 14.401277
10.407168 19.270252 -8.019892
30.448114 23.236038 -4.301536
8.968668 15.015043 7.150047
37.595547 19.933571 -16.581837
28.003094 -8.550056 -17.407740
28.273983 -8.565701 -16.770611
37.543083 17.535503 -14.458267
8.146181 -6.014410 7.040979
37.088417 8.177412 2.883623
36.596115 23.381382 -24.003691
31.528006 -23.176168 -13.477126
28.383913 -19.937916 -13.872765
37.697918 -14.076796 -12.106535
31.346262 -4.872531 -31.787056
37.605171 -2.890156 -22.684547
27.999550 -4.830727 -28.577662
28.025742 -20.262501 -12.951612
9.899192 12.226917 26.416609
28.076292 -4.653512 -28.827694
37.596813 -10.636293 -15.283328
37.388187 -6.351609 -19.271112
27.925522 2.123603 -15.308377
8.716733 -5.144424 19.896650
28.190882 -18.601067 -18.270760
28.385986 -9.308181 -27.000620
29.517893 16.766352 -19.371021
28.307722 2.634893 -14.512063
30.312174 13.992236 -18.360525
27.840708 7.795478 -13.602148
28.041733 10.037716 -11.741483
28.412361 9.204879 -11.371794
-26.007036 18.034100 -0.233025
16.237936 5.938546 14.097903
16.735023 23.057709 -3.193879
27.979944 9.371001 -12.571097
3.867110 14.421377 13.295028
37.409145 -3.585818 -2.131084
37.350731 6.470938 -12.469007
33.705910 -23.538723 -14.520091
33.573715 -5.327441 -32.036633
37.628456 -3.367697 -29.731464
37.445877 -21.282822 -12.066626
-31.028547 17.084444 -7.524884
32.773232 -12.809708 -32.009323
32.886612 -23.275368 -21.494230
27.939232 -23.177313 -16.092649
28.191584 -7.392290 -31.784529
17.290609 -6.807000 18.323875
12.631712 23.002678 -5.854239
28.045729 23.199093 -21.548929
37.316261 12.003687 -14.419036
37.494270 14.384588 -9.286474
37.811230 -4.302429 -14.064981
37.255116 -9.219196 -18.754595
37.392303 -10.576259 -18.628134
37.282597 -5.606544 -13.050754
18.673502 6.135493 17.209225
-23.936634 12.329599 -5.934069
37.127090 -5.160834 -15.153903
37.925674 -6.199555 -13.830133
37.480274 -6.309916 -8.282126
37.381897 0.166809 -15.054122
37.397568 -2.663853 -12.944043
37.443493 -5.193254 -11.786517
37.770512 -4.848361 -10.839509
37.401039 -1.933302 -13.932002
37.427311 -7.130373 -5.022786
37.316628 3.556647 -15.673961
27.909498 5.936153 -18.810139
31.298100 -9.488727 -22.113766
28.907194 -22.914650 -26.122965
28.895494 -16.969601 -31.491922
28.104620 22.635649 -12.111856
10.863153 20.385668 1.522084
33.640556 3.235270 5.555010
34.958202 -13.560232 -18.226028
35.035526 -9.557362 -21.634409
29.062899 6.442881 -31.995363
31.723637 3.416469 -32.228050
29.113016 -23.455061 -2.299991
31.767263 -23.527262 -5.204494
14.449095 -15.355009 5.934254
31.704828 -5.636513 7.645040
31.756533 -10.029795 -23.827688
11.813099 14.850138 8.796063
37.368397 6.006872 -5.968129
37.480148 2.819415 -2.991223
28.020899 22.986376 -16.920759
37.467445 13.646665 0.509520
33.362923 -2.074100 5.379194
34.054611 -2.324744 4.467317
25.534445 -23.279854 -5.654562
-37.544922 -10.525002 0.107989
28.164160 9.365525 -14.261168
-24.459602 -23.415091 0.329236
28.069775 -1.559304 -27.921520
27.817413 -19.221857 -10.543165
28.515285 -19.689827 -30.389786
28.605387 -21.963875 -28.149530
35.433609 -14.107440 3.077997
37.638962 8.589271 -5.402895
37.589207 2.729641 -0.753241
37.465527 17.143860 -2.130728
37.898880 -6.439688 -13.095392
37.557995 -4.811093 -15.412384
37.423836 -20.313646 0.002913
37.435341 8.895171 -29.076353
37.438469 -19.683445 -10.424721
37.494316 -1.187424 -27.691233
37.561184 -10.570353 -29.627773
37.676231 -6.769836 -25.307856
37.370987 -20.999229 -19.498074
37.262424 -20.343891 -4.098530
37.464607 -16.440363 -15.436829
37.627838 4.797255 -29.355087
37.698341 9.514242 -24.870892
29.044380 23.361517 -3.700813
-0.442690 -14.092749 10.194357
37.722897 -15.878185 0.286807
28.129038 6.541970 -12.096967
28.308596 -23.394190 0.473478
28.766481 9.738920 -32.259884
37.339096 13.854626 -3.290731
1.359789 6.989515 23.673210
17.072279 -7.465979 22.007172
16.374668 -6.995297 22.650290
37.425461 23.022505 -9.163098
37.323257 8.658169 -20.291315
22.953489 -5.861527 8.574686
37.458511 -11.816945 -0.379800
37.514130 -8.988007 0.919947
37.707783 9.403303 -17.865088
19.518167 -10.206326 19.712868
14.187374 -9.917233 24.962313
36.999371 21.532907 -10.678109
37.302555 9.283420 -0.894421
37.626347 0.355986 -27.655212
37.139935 1.208946 -28.010427
37.321735 -18.727089 -8.545872
37.538212 -19.655321 -7.837585
37.187798 8.037065 0.650708
37.648479 12.224624 -0.308456
37.510635 7.957087 -30.587294
37.473034 3.729006 -10.284232
37.492516 -1.613324 -5.202151
37.853127 -22.422756 -0.929798
30.373127 18.018856 -20.613424
25.298841 -17.785887 1.654867
35.610352 -5.402956 3.531350
37.455589 -3.633793 -0.596614
37.279343 8.533353 -11.950730
36.470970 -3.806906 2.847624
27.975914 17.893616 -19.471737
26.408621 7.872324 5.124275
30.503439 23.491690 -14.739988
37.293266 16.573978 -6.020197
37.487362 18.165514 -5.571295
37.523827 19.671740 -4.567736
37.614563 -12.644677 -29.987169
37.951591 -19.801580 -2.348073
37.740749 -21.358719 -21.443401
37.596218 6.657466 -28.217552
37.634869 8.762600 -26.497379
37.823818 -17.821526 -0.467226
8.395619 6.050248 18.466663
37.680439 -2.442393 -23.357033
37.325245 -14.530560 -10.932345
37.503582 5.647163 -24.899614
37.585293 -16.949545 -3.370625
20.594149 11.853849 18.097677
13.296084 11.225176 26.311726
27.862257 16.942717 -12.661098
36.626114 -6.263698 2.634784
28.058741 -5.210601 -23.047880
31.413370 23.381353 -13.169378
27.820730 -14.873171 2.681413
28.267073 -14.449855 -14.127667
28.191776 17.841120 -16.886671
35.465443 0.514716 -31.960957
35.041351 -22.906122 -8.220946
36.499203 3.326593 -32.078159
36.040009 -23.894102 -5.378431
22.538334 14.885066 5.565500
28.172976 -7.901960 -27.342960
28.452223 -18.787449 -16.991404
35.023544 11.147628 4.227399
32.497063 -0.204331 6.792461
34.879581 12.757500 3.967876
35.021542 13.111234 4.020748
35.938480 -21.073658 1.722179
32.757839 9.160395 -32.293350
32.866306 -23.310326 0.259727
32.614975 -8.996425 6.670807
37.643810 12.642903 -5.050429
27.836338 11.814299 -9.617835
-19.345711 8.221004 2.223921
28.484316 11.023132 -14.747746
37.640354 -20.724203 -22.579897
37.611702 -14.527057 -29.650520
37.592762 9.721893 -27.734488
28.109951 13.833811 -31.879368
37.625782 -19.107410 0.657749
37.310848 7.610858 -7.773363
37.425713 1.069371 -0.890652
28.056793 15.235871 -12.791679
35.482666 23.633436 -13.926214
37.307838 -9.323377 -3.498756
37.641151 5.015355 -18.050673
27.573792 -5.358135 5.184638
17.773521 -23.190302 -0.730279
28.368395 13.693306 -13.869478
37.282661 22.720272 -7.446144
28.085962 -3.423488 -25.755987
28.384787 -16.919958 -11.972178
27.864521 18.994598 -17.715063
31.627382 23.091764 -16.656700
37.410053 19.323137 -5.141225
37.247551 16.791975 -9.582664
37.338295 1.371164 -23.643736
37.601509 -14.955146 -6.934766
37.508469 4.316152 -23.110775
37.606243 -19.096352 -9.454913
37.520985 -14.484383 -4.288443
37.673477 -0.489808 -27.867264
37.618641 -14.324553 -10.579058
37.235439 14.375006 -17.350521
37.501476 -1.631218 -23.185055
28.295792 4.903604 -9.480636
6.552506 -11.450063 23.847887
28.351620 9.326601 -29.733461
17.413120 -0.669948 10.974265
28.340448 4.164403 -9.358504
27.894484 -19.259930 -22.588480
28.617176 -14.269996 -27.978531
28.243916 7.813348 -9.334862
35.313484 9.584369 -23.115784
35.422058 -2.885189 -32.154591
35.130398 -23.695032 -11.845873
12.312449 14.893239 19.032829
14.024507 14.989114 17.705442
32.782711 -23.314846 -13.965827
37.492107 -0.098228 -31.933058
32.176834 -5.234287 -32.201332
37.304955 -15.124115 -0.480646
37.506256 -23.239071 -8.855330
37.469368 7.847736 -23.795599
37.732307 -6.564528 -1.941729
37.613163 7.004839 -15.586216
37.292057 -14.298547 1.083667
28.114973 -4.247668 -14.543378
27.563023 14.937714 4.156370
28.117769 -5.941712 -12.505097
30.417923 -23.500425 -3.906330
30.104137 4.820001 -32.118439
-25.503448 -18.074741 -1.231878
13.196505 2.507089 7.288106
29.415224 23.118908 -8.967010
28.158215 14.989091 -8.316527
37.213009 18.980696 -0.670366
3.693415 -10.645721 22.543036
2.228284 -7.470018 24.244724
37.902130 13.094923 -0.778334
37.430405 2.070691 -30.510248
37.643982 -21.386486 -6.775520
38.010719 9.351430 -25.658524
37.285439 -16.570362 -0.109477
37.462311 -5.136096 -3.720341
37.586765 4.756761 -13.556084
-1.354630 -11.685663 16.278725
35.154282 0.096968 4.128627
28.317032 -1.308513 -30.965832
28.370417 7.104357 -22.432898
28.022701 -21.979179 -9.861261
28.239799 -1.734946 -12.258384
28.069494 -3.228458 -10.746863
34.587765 -23.386889 -9.279104
34.137516 -0.390565 -32.215897
35.172089 5.205976 4.094020
37.473579 -13.858590 -9.183259
37.705433 15.318611 -15.502349
32.311069 19.623287 1.689275
37.021183 -0.505093 -22.553513
37.530731 15.124288 1.932916
33.557156 6.076671 5.339938
34.174789 5.782461 4.843205
37.643478 12.219455 -4.970379
37.506283 11.736192 -1.972522
28.058126 13.799259 -10.814856
6.400871 -11.362234 24.074570
37.598988 5.546043 -16.696499
37.363167 -8.086710 -3.254204
15.829435 14.595730 17.569235
37.320141 18.859983 -0.140550
37.374649 22.204214 -4.669409
36.981960 -1.697841 0.170305
37.571365 0.806944 -1.291461
37.539982 7.333529 -8.180050
37.449448 9.196324 -10.529349
37.519661 9.375032 -9.537779
37.576538 -0.530156 0.115534
28.027277 18.327530 -15.517820
28.299704 -2.456431 -18.470488
28.398584 -10.015879 -11.673683
28.390148 9.040378 -29.355785
27.918116 -6.756496 -13.660770
28.327669 -5.246807 -15.397225
31.659235 23.135077 -7.745031
32.586811 1.863018 6.597659
37.684750 15.512431 -31.383482
-4.533409 -2.632579 -7.656670
-16.933315 10.504538 -7.650292
6.832255 4.853053 30.623474
37.280102 20.797421 -25.679939
34.819668 14.887993 -18.579184
5.456254 -14.916344 4.351354
25.945595 9.356730 13.514716
33.291191 -18.165688 -21.640034
33.469395 -12.594838 -26.588352
37.174240 -19.389809 -23.792778
37.892559 -14.825345 -27.907066
37.391445 -4.202591 -27.608515
37.138905 3.893822 -19.210775
37.551697 -10.735713 -5.128058
37.653072 -2.227607 -25.387093
37.699707 -16.743057 -11.377648
37.628883 -18.687321 -13.416056
37.743553 -9.165951 -8.188671
37.634129 0.800246 -17.820518
1.895572 7.715517 24.320206
31.138454 -22.734741 -26.268852
30.967512 -17.531799 -31.037140
37.178085 -12.750012 -18.701059
37.432999 -9.769331 -21.878134
37.511612 -13.873368 -17.396990
36.986195 -8.941971 -22.342209
34.606647 9.812943 -23.796745
31.764204 -18.531675 -24.029882
32.055252 -15.707765 -26.941795
28.261961 -16.178381 -12.745924
28.271133 -4.059683 -24.535299
28.256435 4.264478 -24.037228
30.878147 -23.387341 -6.502958
31.164017 2.342190 -32.025494
28.381222 2.426409 -28.499784
28.228302 5.094580 -23.784660
28.225624 -22.407244 -11.668895
28.077644 2.066558 -26.596457
27.950089 -2.703210 -31.269472
37.584499 -6.895514 -11.477027
37.381413 -2.898107 -15.631574
37.592079 3.114028 -14.422008
37.329681 -17.590992 -18.323132
37.381435 -5.429263 -6.043952
37.304222 -9.141538 -26.729177
32.627159 -20.702103 -29.470076
33.162918 14.871614 5.824708
15.668360 1.856263 10.032609
27.901455 22.127775 -26.620670
32.564472 -10.871670 -19.714838
32.561832 -17.135603 -26.190676
29.683092 21.931137 -27.755325
37.450283 -19.330927 -2.344279
37.386196 6.612141 -28.106239
-19.641617 4.864400 4.336414
37.297249 -16.197281 -0.388326
37.530022 8.252837 -24.903870
37.383274 -10.842756 -8.948345
37.507042 -14.809691 -13.296506
37.820488 -4.518881 -23.425543
37.156940 0.194884 -19.148941
35.207401 15.771047 -26.885727
37.558907 12.803000 -27.264910
-33.490078 21.899250 -5.137344
32.495186 -9.686689 -23.712906
31.090099 -10.248525 -25.039412
31.380663 -16.504784 -19.233086
37.788002 -7.725821 -5.318658
37.477440 3.499881 -16.890564
37.228775 -3.098776 -5.874889
37.630394 2.679945 -12.446832
37.561581 2.037251 0.817949
37.773380 9.765361 -6.496502
37.612862 3.605870 -12.782774
37.824394 -4.650951 -5.669576
32.539604 9.408530 -22.914385
32.852314 9.747634 -23.371954
-32.369450 14.602742 1.033985
30.211809 9.759718 -22.269535
37.219398 -10.918447 -7.499536
37.659466 1.881198 -19.515608
31.907148 -23.469711 -15.099853
32.487827 -6.024370 -32.007374
36.978127 -7.653519 -2.949209
37.812088 5.319666 -16.438536
37.713821 -6.704150 -2.546679
37.353321 6.139227 -15.690790
5.365701 -6.698760 28.619019
10.334875 23.330721 -6.943691
37.434105 -15.806813 -30.439289
30.102966 -11.249937 7.600101
37.523739 -21.467157 -25.106102
10.139429 6.224860 9.248752
37.447475 -22.593044 -19.857330
37.859188 -11.002831 -31.223381
30.745174 -20.286318 -29.656454
23.758764 5.978244 15.585031
30.725922 -19.871756 -30.150700
30.482504 -20.707748 -29.577433
30.683756 -21.464695 -28.474138
10.049731 5.996122 28.981295
28.040998 -20.258307 -25.593845
28.114193 -17.212332 -29.508444
12.193128 1.746061 26.273785
27.857138 19.416445 -28.272400
28.003012 18.162834 -27.043037
29.088428 13.143859 -31.932665
28.542141 19.536686 -28.586777
27.784081 19.413395 -28.968952
37.613571 -16.449993 -2.298761
37.304462 6.938986 -25.486511
37.306973 -9.614848 -0.278625
37.625957 8.602842 -17.818136
37.701805 -12.129341 -0.195069
37.663395 8.825164 -20.622894
-16.893581 21.008192 1.521172
37.566368 1.162719 -25.305187
37.681248 -7.408946 1.909763
37.406429 -16.858639 -7.863630
37.539215 10.582346 -16.116819
3.348721 6.264230 12.302970
37.268986 -9.117988 1.727889
37.499973 10.807518 -17.538122
33.110088 -10.281100 -24.201643
33.301300 -15.629150 -18.338511
34.859150 -10.264833 -20.394716
35.124081 -11.472357 -19.242512
35.169376 18.647579 -30.888615
35.097462 -21.482283 -28.780277
34.740070 -19.844456 -30.017591
35.043934 -21.105263 -28.974831
35.209007 -20.865467 -29.880205
33.610111 -15.464152 -32.177910
33.800213 -23.621344 -24.295898
36.755974 -15.141048 -31.680517
36.968086 -23.084341 -24.039396
36.827148 -22.379015 -27.402138
36.928543 -18.846889 -30.876530
28.006403 3.789778 -10.130154
27.844753 8.041560 -30.569212
30.926313 10.857784 -26.244474
29.284235 9.487043 -23.350531
31.076643 9.228135 -23.656406
29.168743 15.794010 -31.644236
36.710335 -9.724147 -23.605621
31.950657 17.761189 -20.692303
36.581070 -14.598492 -18.171650
37.633156 -17.124601 -17.984447
37.361305 -9.405458 -25.812090
37.570587 -7.715556 -22.792015
37.557404 -14.313980 -16.520926
37.001034 -22.694796 -25.924421
37.527187 -17.515202 -31.388445
37.471329 -13.505954 -16.515949
37.606560 -7.898398 -22.395254
32.883121 11.318062 -18.861944
33.486366 10.682120 -20.316355
1.323655 13.187192 15.822398
8.393524 14.783523 10.150595
35.839355 -10.808541 3.648232
34.424564 11.370311 -19.108835
37.416779 -16.493336 -5.201596
37.485813 3.731153 -24.861246
37.360783 -4.065595 -30.789846
37.653751 -22.248266 -13.189251
37.600815 -10.654554 -1.507489
37.602947 7.190860 -19.347229
28.341745 -16.926611 -18.997257
28.425879 -10.295826 -25.100288
29.975374 -13.347008 -32.255177
29.829155 -23.319046 -21.786171
28.029812 -12.201122 -29.888271
31.816530 5.756120 -31.923822
28.082874 -18.323299 -17.601025
31.288542 -23.621517 -2.621175
28.277008 -8.547292 -26.322464
28.262774 6.052088 -28.280163
28.179783 3.341247 -15.039551
28.183228 -21.524015 -20.885136
28.040190 -19.045294 -11.007063
27.904009 -2.198031 -28.196728
32.812447 -23.443823 -12.887467
32.772629 -4.228127 -32.166687
28.071236 4.767773 -30.543734
28.019917 9.200129 -26.618618
37.442245 -19.096878 -20.207590
37.598854 -11.275230 -27.822081
37.462074 -19.031078 -22.420553
37.532032 -13.603648 -28.222116
28.927549 -11.823160 -27.059488
29.151104 -18.167637 -20.711994
5.505358 6.505140 28.304169
30.348389 19.721170 -30.409939
29.699724 19.967546 -29.691143
28.202684 19.795708 -29.495483
27.995462 19.159477 -28.312847
12.700890 -0.550074 6.417004
28.715097 21.107594 -28.795254
36.758553 9.969144 -24.805178
37.627148 11.847567 -17.049473
37.770260 18.407587 -23.891779
-30.911539 17.369837 -2.793673
37.723339 13.316258 -18.006550
12.711336 17.882223 -7.647480
35.770832 17.475056 -20.272720
34.002796 18.343765 -20.838371
12.544584 18.689711 -7.998743
4.089565 0.968190 17.994850
6.162484 3.348927 18.851049
34.771137 17.999266 -20.876616
34.926331 18.288797 -24.694153
35.995724 22.714684 -26.535347
32.511730 18.296032 -21.326666
33.692879 18.026955 -25.317743
29.124393 -23.335806 -17.805740
28.963560 -9.084895 -32.038143
31.464396 16.203125 -26.674540
28.306496 12.195588 -31.329876
33.719269 -5.901783 -32.064423
29.980186 10.836617 -32.213924
33.752682 -23.569063 -15.098702
34.501358 -10.357244 -20.377243
34.617218 -11.595758 -19.118269
36.245010 -11.106641 -19.521246
36.240639 -10.558890 -19.994917
36.272087 -15.652328 -18.835403
36.071568 -10.179408 -24.568495
14.367744 2.495229 9.201441
8.854278 -23.326250 -6.587489
35.838463 -11.621752 -26.670229
36.094017 -17.913631 -20.294888
29.645353 -10.338613 -25.060646
37.240978 18.685976 -26.936977
29.753923 -16.722807 -19.208273
27.998306 -19.795197 -22.682652
28.117039 -13.864629 -28.360374
-13.662968 -4.322508 -7.842378
-18.562395 0.369897 -7.590053
13.317742 -18.671219 -7.520777
37.683319 4.098145 -13.499845
37.956116 -5.024503 -5.142500
37.494419 5.494041 -13.701596
37.615173 -4.917118 -3.178701
29.666821 -18.458918 -22.966255
29.552454 -14.291065 -27.092129
2.896674 23.449888 1.292327
27.831068 11.000078 -30.104492
32.153149 -18.446720 -21.532761
32.413074 -12.559675 -26.903870
37.749512 20.048954 -29.131897
37.030140 17.672575 -20.057264
37.585709 12.130690 -30.027962
4.273204 6.986668 26.608246
35.047787 18.444460 -23.680874
28.436848 -22.454397 -24.618355
28.015890 -15.813104 -31.485424
26.154264 2.272102 13.329954
32.446373 23.646954 -13.791014
7.351227 2.658061 31.593462
28.083944 10.945139 -15.147552
25.637411 -13.541370 -8.092322
20.904806 18.729168 -7.864675
35.572197 13.828424 -27.346333
37.824364 7.473413 0.042805
37.377968 8.838133 -0.992424
37.401379 0.400794 -7.212984
37.522186 1.785697 -8.612289
27.948149 -17.507757 -10.485943
27.746128 -1.462813 -26.505236
29.499601 17.888102 -20.140682
37.686195 -20.862827 -17.591965
37.322838 -8.515791 -29.093657
29.116074 23.522814 -17.844801
37.294003 -17.560431 -2.768842
37.536186 6.532473 -26.306711
38.062515 -1.499280 -26.875399
37.590691 3.155290 -22.347994
37.452812 -17.620255 -10.212562
37.466228 -13.746249 -5.687552
28.165701 -17.032730 -9.306470
28.823709 -0.392830 -25.825008
-31.293316 17.067358 -0.901134
28.438618 18.836992 -9.558244
28.252542 -20.313324 -18.424728
28.018629 -9.726954 -29.222052
27.847973 6.160824 -9.785609
37.471977 21.888344 -7.306566
28.450220 -1.525107 -23.279783
27.990135 -15.051321 -10.178888
37.418892 8.117104 -8.506218
37.153183 0.797461 -0.375581
27.899315 -6.005683 -9.608953
27.931694 -0.269474 -14.579533
28.436403 23.130880 -16.037621
29.676577 23.445377 -17.249277
10.953891 -23.362638 0.868093
37.700565 3.824030 -7.567354
37.502434 1.112078 -4.620010
28.144373 15.860595 -9.337460
27.952835 11.276608 -13.744047
28.292755 16.443218 -8.941313
37.419147 14.241896 -1.658867
37.339668 -5.815240 -30.606009
37.364975 -21.863626 -14.580241
37.485416 6.859659 -17.956736
37.515862 -9.294559 -1.893747
28.399323 -5.974472 -21.324314
-18.458841 12.394753 -7.949691
28.318510 -12.638695 -14.752669
-1.316249 -4.461559 -7.756839
37.270199 15.346854 -14.102450
18.013943 23.299240 0.569214
37.717144 -6.941549 -5.602534
37.182987 3.093881 -15.737083
31.089525 23.377150 -13.283051
31.364660 23.537823 -19.223627
4.763412 -0.915047 29.834673
30.052826 23.186831 -15.379083
37.612125 10.019320 -10.555443
37.335785 -1.552384 1.105078
37.325844 7.321427 -25.406366
37.475868 -16.489742 -1.797623
28.043097 -21.625841 -15.958547
28.036699 -6.841250 -30.124037
28.021191 -0.422146 -22.740688
28.465410 15.491687 -15.350502
28.275091 -13.880395 -9.505330
27.963808 -9.607028 -8.358042
28.163258 0.495973 -18.467936
-18.119246 0.266659 7.392000
27.984402 5.609087 -8.186718
28.626379 3.334679 -10.654278
37.173573 4.949796 -14.151189
37.260021 -5.502284 -3.951305
17.116278 16.380295 1.472355
34.921852 -23.456833 -20.309744
34.703056 -11.311717 -31.949883
28.282806 -21.992184 -11.028788
28.095339 -2.151004 -31.380814
32.938633 -1.689079 -32.277317
-7.490165 -12.483137 8.207493
32.889610 -23.708391 -10.289837
-6.195035 2.464509 18.579594
28.090437 0.008972 -18.619902
27.805874 -11.625602 5.113955
27.987200 -10.081301 -8.676964
28.110086 16.061224 -18.312866
30.846983 23.548128 -10.878173
32.284157 -23.322674 -9.524961
32.142830 -1.251071 -32.002338
19.961143 14.987233 12.655080
29.759918 -23.729742 -11.540960
29.814104 -2.853511 -32.118706
37.217484 13.596440 -5.906640
28.034321 8.331209 -24.200018
37.536022 1.215923 -22.445635
37.607201 -13.633628 -7.860502
37.459400 -12.843054 -5.156386
37.494198 3.982966 -21.477201
18.203007 15.068521 6.853403
28.131779 15.450119 -18.605593
28.165615 -7.543088 -24.555937
27.945578 -16.189928 -16.896353
37.667328 -0.901712 0.897429
37.352673 9.436660 -9.882518
37.688656 21.486786 -15.750609
10.464406 6.403259 9.536714
10.480417 -11.669345 27.231766
37.352707 23.566788 -16.180943
37.427288 21.986677 -15.827378
36.102287 23.456825 -12.540277
37.170834 -7.959367 -2.008931
37.419884 5.762749 -17.227612
27.892376 -2.150643 5.027775
28.214657 13.837435 -11.104769
28.221527 11.589972 -16.312305
28.381920 13.284480 -12.880110
22.422575 -23.618885 -6.263702
4.653669 -7.116858 10.968699
5.391955 -7.053456 10.539522
37.035145 20.916170 -10.968014
37.305336 19.876608 -13.617136
37.684631 -8.854015 -20.334213
37.859074 -11.350892 -17.293398
4.470348 -13.615000 17.312855
37.652081 -11.020445 -18.010582
37.383720 15.148726 -8.719771
37.356274 19.265974 -13.501659
37.899075 -9.710267 -19.487957
36.437321 2.494774 2.898729
37.467270 22.684141 -9.403437
37.150070 12.787285 -31.939594
28.322124 -9.524617 -26.376806
27.944006 -17.374718 -18.583502
32.921146 23.603647 -19.409777
37.369610 23.272604 -23.044214
37.105255 19.426130 -6.266771
37.463280 17.922394 -9.811293
37.979603 3.639045 -28.594893
37.387196 -20.112183 -5.067549
37.288208 -16.411686 -5.254304
37.297131 3.147294 -25.398684
-6.396948 -6.436291 16.397078
5.904751 14.460060 14.042654
8.636243 14.962819 11.174983
37.567188 15.971564 -16.329834
37.727245 -14.693842 -11.926270
37.093262 -3.129692 -23.560694
37.484169 3.309199 -23.921364
37.634193 -15.543439 -5.459683
28.108089 17.523996 -14.476954
28.059513 5.420159 -14.614226
37.703926 -3.208426 -8.571978
37.313553 0.344212 -12.024722
37.527290 -9.331035 -30.269417
37.385521 -21.657768 -18.119814
37.396763 -5.451773 -1.735533
37.553978 6.908529 -14.606178
-10.354916 -5.247690 13.369128
33.347191 -23.377846 -14.748305
33.205654 -6.148761 -32.156075
37.201027 -5.240247 -26.043455
33.142227 -3.741004 -32.071114
33.120449 -23.318182 -13.060037
37.771935 -17.331774 -14.005312
37.159294 -9.220089 -32.136177
37.419777 -23.331907 -17.794312
36.097176 -23.363136 -10.834113
36.185040 -2.555539 -32.062008
37.535767 -1.189326 -30.234659
37.419403 -21.716045 -9.847375
11.056320 5.706293 8.203779
37.779594 -22.207848 -7.777341
37.424931 0.628320 -30.929827
37.744972 -23.132671 -5.261451
37.410461 3.281986 -31.839586
37.501949 -14.441880 -3.480108
37.791325 5.807906 -22.871309
32.097927 -10.411223 -20.603991
32.269745 -11.598740 -19.282801
37.138538 14.012168 -13.756224
37.054600 12.611473 -26.927977
37.286659 20.587376 -19.226807
5.234568 14.995825 6.865890
7.813548 3.257711 4.741688
37.066944 23.941999 -16.778114
37.708889 21.632015 -17.875982
37.661934 21.540134 -16.847073
37.066463 23.440485 -18.339193
3.253963 6.117715 12.023294
37.821350 -12.870352 -2.061675
37.908581 6.809143 -21.881899
28.102800 17.928610 -8.946572
28.049290 -3.227962 -8.389501
28.166294 0.625209 -12.475357
27.083775 4.439548 -7.399279
33.534260 21.527836 -27.870701
28.044603 -19.353506 -27.588343
28.146202 -18.565327 -28.295473
28.091312 1.284918 -8.184769
32.067139 22.412008 -27.373207
27.825235 0.494457 -7.369683
28.225090 1.558166 -8.075352
15.820272 -12.923007 23.359255
17.975056 -12.809664 20.808083
28.045006 3.381329 -19.036453
27.868757 2.097392 -9.829710
29.000853 -11.417168 -18.816381
29.240520 -10.906832 -19.836500
37.306187 1.545507 -6.786083
37.198292 2.225539 -7.155350
13.427326 17.763634 1.827624
12.699311 -11.743209 26.456245
28.000683 -8.998439 -13.966132
28.225519 -5.155149 -17.624920
28.161577 19.994581 -20.469055
2.908035 -12.194138 19.009296
21.012325 -11.397367 17.988426
1.385274 -11.273554 19.218891
37.339214 18.188725 -20.324520
37.583797 16.033642 -12.614873
34.057510 23.469215 -22.699276
31.739042 -11.657907 -32.110657
19.458845 -6.697753 18.818640
31.763018 -23.619101 -20.184782
13.991053 -6.405790 25.247858
33.536789 -14.371950 -32.285606
33.321938 -23.385866 -22.863798
-22.306923 20.891003 1.446591
37.400997 -3.912227 1.612998
-24.116259 22.668961 1.530028
37.559254 10.506579 -12.676056
37.032356 0.417208 -19.951317
37.233994 -10.814933 -8.658541
-37.660286 -4.536339 0.585664
28.115786 9.245845 -18.180683
-18.515707 -23.748055 0.320283
37.256939 -16.589823 -9.974149
37.565506 -1.017398 -25.359154
37.720398 -1.435166 -25.778727
37.753407 7.844706 -16.546799
37.873730 -7.646562 -0.970840
37.323811 -17.016668 -10.419921
28.055874 -15.010282 -14.693327
28.300642 -6.064313 -23.692394
27.943098 -9.171213 -23.436090
27.929588 -0.193082 -14.356889
27.884525 -5.867901 -9.157004
7.390672 23.513731 -3.161955
28.340530 -15.329109 -18.066759
18.084179 -14.853069 4.879232
27.821960 -7.141048 -21.690546
28.046526 17.632299 -11.146381
28.197250 -12.769973 -16.102047
28.501659 -9.800007 -23.121462
28.146866 -14.237735 -18.535538
28.315483 -14.246512 -17.463692
28.093565 -8.756327 -23.143339
37.208378 13.739727 -9.961111
37.273617 19.065950 -14.857412
30.217852 22.927349 -25.583630
37.664444 -8.946897 -11.072786
37.369621 -2.829509 -18.186207
37.535152 0.877210 -17.227554
37.910168 -7.945998 -8.132931
20.945610 -10.823566 18.351683
28.298086 -9.985738 -14.736090
27.700220 -6.198345 -18.858473
13.249601 -11.446819 26.270811
-14.703270 -23.244944 -2.669952
-37.378731 -0.585938 -2.745989
37.464577 17.199841 -15.788216
-10.896845 12.704071 4.593624
37.155251 22.674458 -26.348112
37.249844 22.478897 -26.572540
37.559914 18.917883 -23.369904
37.545479 -0.334637 -22.401587
37.808487 -13.428506 -9.135446
28.055622 -6.562360 -12.983574
27.963886 -3.915244 -15.372137
28.166016 -3.057510 -15.451764
27.864117 -8.084772 -13.016776
28.069427 -7.107674 -11.393347
28.254187 -3.945103 -17.073925
27.859667 3.828017 -20.293413
37.271198 18.156298 -11.874345
27.909605 7.180633 -14.662827
9.245148 -13.915298 20.509388
34.521091 -5.833427 -31.836901
34.513287 -23.504047 -14.208583
37.617310 -5.416621 -30.175959
37.352169 -21.121258 -14.659446
37.688431 -21.678722 -14.309204
37.468254 -6.453218 -29.240946
37.584457 -3.412995 -31.757561
37.771637 0.920818 -26.122478
32.878750 9.832018 -22.063452
37.421741 -17.708946 -7.738207
37.733231 -22.604887 -12.634769
12.887361 15.025163 13.552122
28.127449 -19.886295 -19.259409
28.238810 -8.191914 -30.705124
31.547949 -10.555248 -32.127598
31.377390 -23.582994 -18.878609
28.180380 -22.279438 -17.239368
28.054604 -10.240874 -28.571583
28.312370 -7.183916 -29.826014
27.960247 -20.948492 -16.257208
37.658661 14.796469 -11.861567
12.176813 -14.940451 9.669201
37.332848 14.896490 -10.072713
37.101593 -2.720607 -9.474627
37.578156 -0.534151 -11.556461
37.614845 -4.914751 -7.418351
37.588078 1.977484 -13.917062
17.982897 -21.929251 1.796608
-16.848364 13.258713 1.788455
37.481232 -7.189951 -26.072344
37.713020 -17.351086 -16.071411
37.176208 -20.277941 -9.732151
37.520485 -1.125920 -28.899410
37.473846 -1.000451 -11.342051
37.191139 -2.376091 -10.271199
37.544117 2.996888 -9.342310
37.259296 -0.655766 -5.776796
28.266569 -20.433779 -9.409132
28.139812 -0.636455 -29.378000
-6.790396 2.551727 18.139547
28.079111 7.315372 -21.647509
28.136511 3.850624 -26.019529
28.114895 -22.262962 -16.624460
28.274700 -7.747808 -30.690193
28.549850 -23.483400 -20.903156
28.611618 -12.161265 -32.427921
27.829386 -1.706501 -19.927212
27.947365 -11.141003 -10.674450
28.154026 9.964611 -17.196939
-11.604092 -0.001299 13.299383
37.526810 -1.389511 -27.658142
37.669201 -19.364487 -10.200362
37.369926 -14.320783 -5.138360
37.532707 4.023705 -23.095972
28.052635 2.979901 -11.880379
28.265348 17.078758 -10.055112
37.803635 22.212919 -18.814007
35.255535 17.765743 -25.072186
9.400356 -12.710819 23.806610
37.552517 9.393110 -18.149996
37.391350 -9.318355 0.530735
28.095945 -3.550799 -27.142408
28.059040 -18.339897 -12.646015
37.231644 6.475113 -24.326403
25.820984 -12.545548 11.299109
37.598667 -15.356178 -3.121026
33.325699 14.847745 -18.175253
33.123814 -9.415478 5.940445
27.836576 -21.960009 -11.905062
28.107794 -3.353037 -30.793333
27.909431 4.907788 -15.793390
27.876213 -19.993267 -25.236902
28.277569 -16.472412 -28.921864
37.660301 6.332065 -9.892529
37.537064 -0.990750 -2.704838
34.184238 1.022836 -32.329903
33.840889 -23.580517 -7.930542
28.315271 -10.916759 -28.284792
27.903807 -19.284760 -19.768560
33.282047 23.549671 -15.257815
37.388790 2.620438 -16.516628
37.550568 -7.947748 -6.576160
37.648220 22.897161 -1.978001
37.434017 3.913891 -2.803069
37.431599 5.723294 -4.762942
28.257801 -0.162984 -19.088810
-6.204228 -14.299990 2.910702
-24.417507 15.940392 -0.593916
28.222897 -14.827568 -13.198594
27.769188 -10.599164 -8.656750
27.805904 -4.112377 -23.270420
36.956810 1.778283 -1.998578
37.786224 6.720548 -6.894347
28.248703 -16.922201 -14.826885
27.955484 -6.250249 -25.878851
35.208099 23.315350 -22.635052
28.180359 -21.348679 -18.551899
28.302092 -10.039603 -30.250069
27.960154 6.331345 -11.221660
36.141953 -10.435965 -32.196579
35.862583 -23.324717 -18.959991
28.322359 -3.833516 -15.993365
28.422787 -8.340734 -11.411416
28.111891 -7.204017 -12.864953
28.256418 -2.800202 -16.991886
33.255459 -5.211452 -32.108635
33.351974 -23.601133 -14.170558
28.324003 22.021511 -9.952746
28.271809 -21.954849 -8.936131
27.967394 -0.587196 -31.235689
27.939924 -4.576109 -10.530508
28.164358 -1.536979 -13.101332
37.645432 8.821709 -9.534369
37.623959 -0.580498 -0.134878
28.268642 8.677598 -31.117771
28.098110 0.150250 -21.950527
27.788347 -13.253908 -8.986643
30.791317 -16.636721 -19.383057
30.472763 -10.287677 -25.427614
28.148291 18.653410 -16.430214
26.408762 2.724290 12.931365
28.402323 2.398912 -31.684887
29.362160 0.755188 -32.236076
28.406630 -23.387407 -6.462241
24.656229 23.374195 -5.728382
29.450708 -23.355049 -7.383850
8.504154 2.694022 30.232674
6.947053 2.670380 31.634899
24.798231 2.796720 14.265262
28.260754 15.225604 -9.321483
28.000315 -6.756957 -22.621191
28.199511 -13.826736 -15.493842
27.845581 5.830767 -26.985342
28.199684 -19.963030 -17.952467
28.273203 -8.786592 -28.644110
31.241663 -23.495390 -17.780247
31.584093 -8.482677 -31.987455
37.419041 21.006760 -20.889023
-7.838091 14.401676 1.766312
28.103601 22.763819 -9.013968
24.778576 -23.315651 -3.294756
31.623562 11.649922 -18.950012
28.755072 12.295791 -18.598289
37.244091 -4.344689 -2.004428
37.409611 6.718843 -13.282945
-33.360123 21.902554 -3.961836
