ply
format ascii 1.0
element vertex 1589
property float x
property float y
property float z
end_header
2.223487 21.563017 1.932401
-21.629078 -10.502731 -7.658198
-25.836304 -6.993268 -7.993981
7.231015 10.110156 27.434736
6.189560 -8.167924 28.669703
-17.076193 16.343964 -7.576560
-17.332863 1.388309 7.933132
1.901217 -2.336739 -7.371401
-16.374466 23.099812 1.353814
8.174280 -9.901226 28.426046
14.781964 14.933096 23.857531
18.241171 13.909843 20.599983
-28.371046 -18.531279 -1.825832
27.970589 7.387193 -13.546527
-36.824795 -9.801268 -1.917614
-23.926544 -23.607485 -0.729231
-32.493027 -14.530391 -1.213172
-0.665358 23.770853 -5.574773
30.019800 19.082514 -22.882921
27.607647 9.625138 -11.027256
23.060595 -12.761558 16.007399
5.959575 19.068342 1.797107
26.143230 -9.679299 10.895821
4.805605 20.982786 2.258221
-22.701506 -2.376433 1.728658
-37.289604 -14.220490 -5.235189
-28.617422 -23.575712 -5.110721
37.289288 0.203266 -9.462654
36.674473 -0.141360 -8.824319
12.217667 18.962606 0.817005
-23.880646 -13.637792 -3.287104
2.308487 16.435810 1.126783
1.949219 17.780876 1.899387
-27.310053 -9.947379 -3.560516
2.660084 1.318083 16.471224
25.722355 -8.978112 12.771728
-13.323296 -2.462707 11.890445
-16.841515 20.519047 -7.919064
-11.878731 -4.086168 11.899984
6.458099 -1.949895 -7.628780
37.510014 -6.868036 -7.863988
37.157406 10.344341 -25.049900
37.281979 0.282934 -16.249378
37.471336 10.343631 -24.250002
37.779526 -8.328165 -6.005090
36.466881 -17.127274 1.279615
37.483570 -15.621649 0.509649
37.231148 1.919182 -17.016773
2.456807 18.994507 1.490934
4.453172 17.046942 1.665672
30.169832 9.912545 -20.484322
37.338165 14.965114 -18.633558
32.740074 21.044563 -29.214233
-16.750589 8.885739 -7.302880
6.363515 -5.479385 7.019055
1.699748 -3.926107 14.124174
0.899372 -2.516468 14.811604
-4.748402 -3.207741 -7.912031
2.039314 9.567116 22.146811
0.913811 -4.937989 12.505315
-12.943851 4.763170 -7.714637
37.718025 20.368622 -24.277191
-8.944041 1.525435 -7.190921
3.257701 -22.822142 1.539419
-36.057365 17.509375 1.573302
-34.358997 -8.280746 -7.157230
-22.730677 -20.588280 -8.110380
37.161083 13.256423 -16.080374
-7.378209 -5.131277 -8.435295
-18.863934 6.658264 -7.916909
5.481452 6.424291 28.496740
19.031157 15.783883 -8.635787
18.180275 -20.557524 -7.479657
-35.118706 -4.136743 -7.304399
-17.910507 -20.121668 -7.640739
-19.628101 -23.417343 -7.895014
-37.475266 -5.457002 -5.969082
-23.001194 -14.531545 -4.351357
-27.826744 -9.618535 -3.272729
-3.120850 -7.236240 20.003859
-5.436092 -6.783276 17.088068
26.249199 -9.619362 12.158010
-32.550373 -8.159430 -8.434417
-5.485367 -11.068715 12.222633
-23.143335 -18.716822 -7.936086
-31.046930 -11.172870 -7.453367
-24.424728 -16.883722 -6.887811
10.661873 23.798086 -2.627486
31.258995 23.840900 -22.674664
0.150487 16.106100 1.268897
-25.256920 -10.511797 1.543739
1.697688 14.998913 1.626003
26.733177 -11.058440 12.328587
-24.141497 -11.176205 1.489728
34.045979 10.966279 -26.493538
15.874619 -4.619959 12.383127
33.247242 -16.757748 1.529220
-3.210978 4.531420 21.619402
10.136902 22.518707 -5.431078
-20.592640 -14.355474 1.900847
-28.376991 -7.114111 1.445512
23.687813 -10.707726 14.963984
-25.153851 -11.108682 -0.934914
-24.551559 -11.768977 -0.439200
-18.439358 -22.984339 -2.481421
-37.047653 -4.089626 -3.475610
-6.435398 -11.082079 12.299743
-4.081252 -10.424407 14.414199
14.141073 -6.031330 12.851902
19.080900 -1.387832 12.963729
18.658272 2.647204 12.903595
14.836580 2.594256 8.907804
-34.687164 19.336159 -7.741238
5.261405 -19.739517 -7.706573
-34.133259 19.593903 -7.848945
4.718474 -20.707817 -8.345874
16.640289 4.531703 13.228204
20.828394 -3.797539 -7.750441
20.210365 -5.443821 -7.888716
35.985550 -23.579329 -13.557898
35.764359 -4.526429 -32.160465
-8.468806 18.719044 1.699110
-8.373938 10.553406 10.907334
-4.693389 14.654765 1.361129
4.132284 -5.062180 8.982044
3.054082 -5.305723 9.515277
5.210176 -6.209559 7.589666
2.220613 -6.794681 11.324156
4.973289 -5.620190 7.737557
2.137624 -6.534789 10.414683
33.449493 -23.751524 -18.856949
33.408489 -9.519850 -31.531626
32.907784 -18.619650 -23.106121
32.732540 -13.077525 -27.083652
12.963369 14.636876 4.147636
28.563778 21.760326 -21.886532
33.164238 -18.600876 -22.586489
21.666656 16.729771 1.606652
-12.338126 8.612061 8.982205
-14.130486 7.281238 7.751697
-32.135147 10.259268 -7.223885
-13.192084 -17.927868 1.796512
-32.202564 1.108141 1.477754
-3.316743 -18.282099 -7.518205
-34.113060 -13.320698 -7.426554
-26.714108 -19.653080 -7.884705
3.554984 -6.987179 9.710171
28.080158 21.037725 -22.270901
4.089394 -7.133867 8.105944
16.926586 14.602591 15.365845
2.602669 -6.491570 11.186513
33.793011 -20.806259 2.026719
2.971338 -20.147558 -7.799227
10.919497 -12.344285 -7.821105
-34.213631 17.781826 -7.922235
28.188572 2.541274 -9.391290
-17.234606 -10.861865 2.763622
4.493596 -2.646675 8.097752
2.941335 -2.630276 9.107771
-24.665482 -17.308279 -3.428751
5.540929 4.379429 17.820000
-30.570875 -10.579553 -3.939738
31.632250 6.641436 6.845385
4.166910 4.536988 15.670117
-2.507443 -10.154664 16.640833
12.481454 5.845441 -7.504664
13.741179 3.959589 -8.020735
-7.709491 0.919953 17.224550
9.276971 -6.909868 8.575562
28.695808 1.513499 -20.135666
27.398035 -8.787924 -7.825038
19.885160 14.401140 -8.023451
-0.003408 1.341479 25.208626
37.256275 8.094276 -5.152053
37.323879 3.115419 -1.310519
18.875891 14.068073 -7.611857
-0.012513 1.559104 24.946325
2.260130 -11.792205 18.777687
37.032417 -18.064320 -32.020630
36.915615 -18.160299 -31.951464
36.143696 -22.900997 -26.293146
37.743160 -23.174425 -26.295198
38.303905 -2.642146 -6.448968
37.927006 1.581371 -10.606139
37.316387 4.212881 0.113161
37.403362 6.857050 1.175967
37.761227 8.754329 -4.787795
37.604290 11.047201 -2.236984
10.837033 6.328958 28.383310
31.644405 6.537676 7.607873
22.718906 6.743376 15.741588
37.585484 -0.559357 -14.265908
37.838486 7.582446 -5.169187
36.837761 -13.836866 -18.533556
37.522812 3.947517 -0.503025
37.571125 -5.347139 -9.538863
37.397778 -8.779437 -22.065176
-23.353729 3.326996 2.563895
33.701675 -13.002476 4.722750
6.412319 -4.627168 5.396404
30.311274 -0.925434 -32.125454
29.959576 -23.765676 -9.282832
-26.746788 17.897858 -7.505348
1.909103 -7.972562 22.876373
-6.993969 11.765849 10.395171
-26.934610 23.716751 -2.996399
22.357355 -23.879089 -1.845660
-26.543575 23.782528 -2.978694
9.273287 -4.514503 21.068737
-11.050079 11.135921 6.013568
31.504793 11.939959 7.144588
8.716446 14.107849 5.810858
27.097004 2.107838 -8.194079
-19.398323 2.901626 5.120103
26.835442 14.179826 4.578424
-31.397377 23.213127 -6.039110
32.118626 11.317925 7.571949
18.234783 -15.667710 1.370636
17.232098 10.947756 -7.996721
22.078648 6.735159 -7.634377
3.402669 13.589432 15.689865
23.222181 -20.542633 1.954510
37.407219 16.342062 -1.497765
1.788056 -1.546981 16.275867
18.365229 -22.918991 -6.395349
11.854502 -3.974041 7.389606
-7.044596 6.093045 -7.522119
-7.784028 6.620523 -7.750130
15.211484 -1.919138 8.870883
12.082202 -23.202747 -1.096671
-11.428071 9.532745 9.274636
-17.065586 23.468418 -3.980816
15.407534 -0.150571 8.745155
9.062679 -24.324837 -4.594545
9.270961 -8.665392 -8.034893
-31.267788 22.075974 1.729356
-3.364450 15.115114 2.178170
-4.822767 15.299184 2.236197
8.083272 -16.489996 1.759171
-21.330816 22.728785 -7.624031
8.432057 -7.425145 -8.367118
12.049881 2.542403 26.318777
-15.081791 5.861679 -7.898041
-7.637575 -1.714568 -7.966743
-20.596701 10.636568 -8.041273
-4.459775 -6.701677 -7.803328
-11.103477 12.845942 2.686259
5.855535 2.473435 30.224125
35.403175 -17.223181 1.411746
-1.697031 19.407366 1.768781
-3.676875 13.256062 10.991414
37.512222 -22.297834 -18.798620
37.245594 -10.012991 -31.506285
8.618104 12.823609 23.527954
3.446029 15.124255 1.648414
34.308102 -15.468654 1.525165
0.412707 17.563725 1.464280
7.128909 3.981280 31.075806
-2.406606 -21.356256 -7.880827
-34.271370 12.069357 -6.851848
-6.452209 -14.115550 1.993052
-24.275553 16.503839 -0.700332
28.361525 3.115199 -32.426495
31.645863 -6.707248 7.247678
27.734529 -22.786600 -5.528449
7.060710 2.267563 31.306110
26.505186 1.914320 12.772257
12.158577 4.948562 24.092953
18.574438 14.909879 5.353611
8.208424 1.693851 30.163857
18.120937 23.777079 -0.773205
24.719694 2.634906 14.370853
23.891771 24.048651 -7.100401
28.441269 -23.315556 -5.956713
19.000523 0.639507 -7.534426
27.876280 3.112235 -32.457432
33.987785 23.542259 -0.919302
24.135876 -23.454607 -0.389858
-32.272076 -12.018117 -2.448833
-32.606899 -12.066797 -2.944527
-26.371595 -18.145618 -3.018826
-26.663267 -18.171436 -2.556180
-3.996798 -0.905050 21.836515
-28.017908 9.319652 -1.775991
31.244972 10.691918 -19.713289
-11.705905 10.020723 7.001603
34.485023 -14.204784 3.989555
-4.832066 9.922979 13.450875
-5.310239 23.601154 1.469142
-3.462062 11.949017 15.333022
-12.198332 15.401529 1.664908
28.388924 -23.119741 -6.471381
24.591377 22.640144 -5.722993
26.725483 3.767514 12.479648
24.038372 3.397935 14.315514
8.918660 3.378342 30.167599
27.905123 2.266545 -32.295334
7.008106 3.024148 31.894968
9.732220 -4.059040 21.926615
23.319008 -5.927196 15.446147
10.488751 -5.712651 28.455647
34.286789 23.602152 -10.374035
-36.037804 17.581284 -7.292713
3.929780 -20.359451 -7.665589
0.533920 -16.815512 -7.609056
6.076865 8.989624 27.825306
4.916531 0.325713 19.058643
26.487486 23.362591 1.003777
-27.926079 9.512755 -4.478147
-20.166513 -24.320671 0.522849
-38.201645 -5.665593 -0.037553
29.908232 23.192217 -3.388609
27.774355 9.155991 -18.985313
-0.735236 0.925061 14.386150
-0.998055 -14.550746 10.173439
-1.438614 -7.695309 20.165512
27.810818 -1.824078 -31.303392
27.608179 -22.686316 -10.877132
28.659996 1.158830 -26.855507
24.948988 7.465164 15.199678
8.852683 7.346919 29.444258
10.774664 3.964143 6.434652
29.566446 -14.908645 5.962012
36.445160 -23.181053 -9.011781
36.095467 -0.571149 -32.410343
21.768862 8.716339 16.429211
10.847266 8.966410 27.838488
19.628725 12.749131 19.582417
13.443352 13.197511 25.525375
-1.680972 2.980911 23.951363
4.444152 5.403431 15.467156
-2.542315 1.878408 22.393194
30.334936 -9.352035 -31.699358
30.448097 -23.795815 -17.650818
14.536748 -23.235722 -1.354440
10.678917 -22.705881 2.105476
12.334511 -23.232393 -0.187363
36.774357 -3.461946 -9.006097
29.779692 -8.074419 -32.250248
29.462389 -23.277393 -16.641975
18.540747 -7.152134 19.321856
28.638575 -23.864260 -16.073858
37.554684 -0.714826 -11.895318
27.970217 -7.544629 -32.393402
-7.812866 -0.542399 17.897083
-6.783860 -12.131255 9.280295
13.984499 -19.464254 2.060044
-9.067899 -3.592412 15.202370
-13.955061 -4.510245 10.209770
0.769397 -0.597706 24.900917
25.167448 -5.968500 14.105002
8.785871 -6.204090 30.544357
29.797676 14.801302 -18.128477
-7.006639 -0.215625 18.231722
24.619581 3.288027 -7.895825
-3.986878 3.551266 20.456978
-25.258844 -17.819160 -4.599499
-31.388420 -11.685959 -4.473029
10.098738 -12.159682 -7.968778
-24.438545 -2.473338 1.925172
13.986862 6.275845 23.490185
12.996494 5.835909 22.528269
-4.987112 10.014470 14.814995
-1.463471 11.522248 14.521670
-8.181007 6.584981 15.057742
-6.746500 10.594440 12.167849
9.581566 1.368725 -8.101751
-9.557286 4.608372 14.976686
37.403553 -2.584988 -18.340446
-5.624145 15.979263 -7.670005
8.204726 1.522061 -7.190840
-9.390679 5.077300 14.617775
-8.483051 5.297616 14.908049
9.932723 14.852468 6.745832
-5.506202 24.072533 -1.443303
-36.013664 18.463587 -1.075967
-11.736347 22.811312 -8.120061
-3.492993 11.295952 14.231256
1.140027 9.134874 -7.381802
-3.348680 11.691873 14.665430
37.126183 -10.248986 -11.937192
-5.944536 4.515003 16.413767
-8.574807 5.855420 14.586413
-6.639810 23.626005 -0.416688
-4.105082 10.862668 14.929394
-8.692529 20.121227 -7.171823
27.342812 -16.600908 -8.497180
13.703060 -3.559596 -7.652030
-13.373207 5.175122 10.541578
5.602603 4.923875 -8.072899
12.577987 -2.669107 -7.757204
-12.391330 -0.251363 12.786562
1.784767 11.336638 19.187101
15.074482 -19.846533 1.531829
-16.102665 11.611096 1.762202
-16.664299 10.458556 2.249023
-11.958287 4.204341 13.180781
-5.810379 10.277899 13.435740
-3.498237 5.282403 19.435005
-18.405315 4.486276 6.076041
-21.011425 5.199327 3.453250
-20.632002 6.283721 2.716544
-10.265849 5.984963 12.707391
-10.063693 7.189688 12.310752
-12.429915 0.243239 12.728420
-14.982868 4.822500 8.163450
-10.585587 23.783428 -5.304369
-10.082927 23.575356 -5.204623
-10.417223 2.877120 14.821258
-15.088407 6.580914 7.570686
22.018297 15.152553 1.282833
19.251879 14.731105 16.463501
-5.964928 3.038890 18.348005
30.257879 9.701157 -20.521416
1.802427 4.891737 26.057999
3.163608 6.088862 25.564835
-1.157379 7.010213 22.329319
28.103622 16.407703 -10.957168
8.229877 5.528309 30.253942
-14.156194 13.940388 2.207413
-14.385080 10.916669 4.538012
-6.119895 6.722558 16.774054
5.789129 -4.651249 17.100782
37.226482 19.264244 -22.978413
5.562529 5.862815 29.444799
4.737955 -4.021252 17.288174
23.561295 2.049616 6.903893
12.028605 -0.026528 5.871556
-17.233017 10.223152 -7.784186
-4.570127 -3.284541 -7.833050
36.799164 13.287336 -18.146910
-6.190881 -4.837022 -8.447431
-19.621990 8.181537 -7.668133
28.233580 16.244864 -10.812701
1.957375 4.885003 26.257017
-1.786999 5.758423 21.706928
-2.564460 5.950915 21.437147
-6.572670 23.546560 -6.595043
-11.824724 23.155346 -1.216210
3.601672 14.296621 11.625658
-8.673163 7.906864 11.821974
-9.420043 23.790604 0.460640
-4.307827 8.087873 17.675180
-4.088952 22.937025 -4.342091
-2.997151 7.279871 19.118814
-7.494024 10.596288 11.626718
-3.506070 7.514380 18.940516
-7.345197 21.507116 1.373284
7.515357 -7.281182 13.845988
8.703243 -7.425802 13.424400
7.495292 7.876294 29.589621
-33.643570 21.742516 1.179734
16.462833 7.564843 19.465918
30.341875 -18.244507 -22.072952
-8.846040 -0.717381 16.026054
-2.453100 9.069102 18.574732
19.227612 -22.522573 -7.958252
17.139074 24.368538 -2.266749
-21.510214 6.033348 -7.941597
-7.911006 -7.565349 -8.561081
-22.519714 23.236963 -7.107734
9.055260 10.649131 27.495693
24.236675 14.752143 13.279890
-26.767132 -9.372896 -7.708091
0.935348 10.879825 18.989992
13.259495 15.381906 1.510190
24.471771 23.625380 0.186564
8.496366 7.618873 30.328573
24.767126 6.912415 14.312353
8.422193 9.188401 28.601986
24.369696 23.271362 -1.275646
-0.168131 8.743909 20.118496
3.598589 9.029771 24.205357
-18.024769 9.635878 2.098989
23.628159 16.589298 1.726729
22.818342 10.621886 8.159513
0.103219 10.219589 19.853174
14.695998 15.492158 1.160565
24.284986 -14.752666 3.477915
-30.016327 -10.379476 -4.085225
-24.308296 -17.271687 -2.663585
-37.768883 -15.000300 -5.657321
-29.383705 -23.374014 -4.944987
28.237511 8.478428 -14.530004
-24.964443 -23.942688 -1.204154
-37.389320 -10.620338 -0.906089
7.668599 -12.452891 24.535294
30.784103 6.364865 7.936924
27.886354 -20.885689 -16.165524
27.667746 -7.257563 -29.973007
6.585991 8.984247 26.883709
34.560116 23.566246 -23.490875
-13.463447 -13.179932 1.165053
-4.784560 -12.199545 -8.344923
-1.908144 -12.674870 12.456711
24.782156 -17.488136 1.632011
14.982560 -17.541199 -7.921242
-26.368284 1.903657 1.238701
-11.165154 9.921250 8.568291
-10.092581 17.807966 1.320290
20.643684 21.868246 2.469643
7.633254 10.438887 26.373400
21.187191 11.481855 -7.863787
7.711726 2.422046 21.242941
-14.573638 -16.311678 1.635823
0.959621 9.132514 21.633284
-30.329376 -0.605773 0.868726
-22.142021 -0.642504 -7.754616
-15.003079 -7.124262 -8.024624
28.391556 14.734332 -10.854876
-32.787182 1.395868 1.086675
-12.924552 -18.630636 1.240825
-37.730583 -15.809853 -2.273036
-30.552090 -23.236950 -2.531245
7.564373 2.230756 22.032131
3.561627 10.540297 21.403332
13.940459 -6.478628 25.113310
28.447649 23.409212 -18.344717
13.630816 -5.694365 24.261948
28.608816 22.576694 -17.804205
-3.942473 -21.628357 -7.827243
-35.129318 10.198821 -8.025074
11.100428 -6.843072 12.060305
-37.998672 1.671903 -1.137477
-37.553719 7.487350 -7.250716
-13.580557 -23.698759 -1.136609
-6.957965 -23.201679 -7.702296
-28.667347 9.841985 -1.331170
6.722165 11.621325 24.030890
24.696327 -1.313342 14.818462
17.694145 14.601987 -7.146553
32.198757 14.513303 6.649444
8.934894 -0.687565 29.443344
-21.641197 10.896169 -8.136250
31.602558 17.460592 -19.103859
28.844501 -2.138013 -22.355555
-30.509729 10.664039 1.689556
-30.721146 0.742391 -8.288388
28.167604 -13.829170 -11.086432
-14.039977 -17.042768 -7.262814
-3.489897 13.718430 11.338911
-29.769005 9.442510 1.838589
8.652742 15.641366 2.547071
-3.834669 -16.470619 1.321589
-3.136215 -7.804554 -7.857686
-4.566343 -15.481857 1.872099
15.087794 12.010422 -7.461183
28.197721 -9.781353 -8.358783
-33.566273 -1.584604 -7.162905
-16.285675 -19.781012 -7.366045
-37.453388 10.661907 -4.704726
-3.305955 -23.582651 -4.311213
-6.962743 -24.027500 -0.355886
-37.825401 6.818029 0.207591
-37.053974 8.670086 -2.315496
-6.047254 -23.800171 -2.898053
21.751745 -15.415133 -7.935389
28.336178 2.106526 -17.862711
-4.420458 -23.601881 -5.316678
-19.414406 -23.808659 -6.602102
-37.373531 -4.601074 -7.001201
-10.832232 -23.326582 0.875045
-38.005398 9.748306 -6.141059
-37.472805 2.837442 1.172027
17.703146 -19.735994 -8.035897
19.819860 16.698002 -7.878855
24.024702 8.006931 16.089111
-35.542744 -4.151021 -8.196883
-28.920958 4.087220 -7.821073
-11.434649 -14.005624 -7.657695
-17.793852 -22.052286 -7.638626
10.140463 8.919298 29.041380
-23.877159 8.090796 -7.455138
-6.897868 -9.040606 -7.866645
24.188915 20.144697 -7.374345
24.701735 3.715232 9.488321
17.414898 14.420952 -7.383593
-4.734834 10.917654 12.356281
2.592858 6.516149 11.008055
21.187170 18.433140 -7.832350
-34.533249 -3.602308 -8.189592
-17.420259 -21.086100 -7.832504
18.023773 -20.992014 -7.674644
28.990746 -19.786823 1.741376
13.990212 22.166790 -7.866881
-27.369869 -7.883467 -7.830726
-22.261068 -13.380338 -7.993970
-36.556248 -16.541353 -7.730450
-31.880754 -21.558117 -7.595539
8.802000 -12.692052 22.521074
3.762080 -3.471665 7.936627
3.423672 -4.239369 9.402811
10.582342 -6.416271 28.487379
23.629793 -7.728964 15.838300
6.007491 -24.039476 -2.420757
-29.904142 -18.555666 -8.090303
-24.223831 -8.295036 -7.868041
-31.437206 -16.420752 -7.795516
-22.317064 -9.960148 -7.796423
25.007145 -10.792682 6.060792
-6.615098 23.761837 -7.207979
-12.675717 23.735519 -1.482618
-12.978330 23.150879 0.530784
-30.731461 -5.354247 -7.806849
-19.823927 -15.703674 -8.108579
-14.654117 23.386059 1.159553
-23.907808 -20.999092 1.183598
-34.732262 -10.768785 1.272395
-7.999635 -17.710897 2.473346
-31.991859 6.008290 1.837258
-37.612221 11.421863 1.404864
-3.370786 -23.513582 1.779789
-27.654818 1.599781 1.762231
-12.558028 -13.281074 1.859925
24.223963 -17.222353 1.888933
6.937759 -7.787534 28.432573
24.470419 9.147628 -8.378785
-28.378893 -7.249940 -7.903664
-21.287819 -14.807847 -7.818882
-28.657124 -4.490613 -8.055174
-19.276045 -14.569950 -7.638989
2.032190 -8.873808 -6.826779
26.227995 -20.040886 -7.203765
-13.134615 -9.825603 6.839188
-22.943863 16.302139 -7.299963
14.156281 6.532795 14.631526
-37.942520 -3.423883 -1.545942
-19.603750 -23.974245 1.786300
37.634544 21.529957 -12.377611
-37.316463 -4.229928 0.790666
-16.922676 -23.975513 -0.994730
16.074743 -21.007545 -8.053897
24.796206 -20.888954 1.716788
-27.188683 6.470069 -8.449013
19.008789 -16.875345 -7.921847
-6.772429 -13.270915 -7.025473
35.153328 23.012064 -18.499714
-16.599541 20.829491 2.042438
-10.906979 14.354947 1.234463
23.870354 -11.752981 -7.590351
-35.845234 -1.984248 -7.787497
-13.018024 -17.944214 -7.425271
-32.115604 2.606726 -7.315449
-15.594190 -22.379618 -6.769938
-2.286393 1.771368 22.530725
-24.516062 9.499638 -8.696110
-5.194065 -10.679192 -7.972375
-12.731604 5.782121 -7.837555
-9.038885 1.914107 -7.483624
-11.063429 -0.597197 -7.596138
-14.961017 3.410269 -7.859000
-37.562660 -10.267883 -4.074689
-24.076954 -23.846655 -4.184823
1.736145 1.798219 26.538971
-23.532425 -8.825464 -7.329173
-22.824261 -9.510750 -8.052570
-9.078030 6.032460 -7.503898
-8.411299 4.991793 -8.114011
-11.410685 3.332081 -8.044739
-11.093535 2.539923 -7.791069
7.929193 -11.407948 25.566994
11.663196 -9.634060 27.035070
-32.334393 -14.591929 -3.535658
-28.581833 -18.419098 -3.932272
21.789955 -8.796779 17.771719
-36.630367 -6.857988 -7.222356
-29.749823 4.155430 -8.423619
-21.096088 -22.327604 -7.288496
21.679808 -15.389191 -7.124522
-10.547283 -15.847670 -7.976248
24.107855 0.614394 8.802999
3.423032 0.828849 29.146147
15.446665 -7.775236 -8.165694
8.467484 -1.408137 -8.015435
-15.731133 22.930948 -7.175928
-36.740585 10.325109 -7.268101
-13.265976 -21.919783 1.772644
-4.155266 -22.045797 -7.945792
-35.804131 1.004336 1.279097
28.066563 23.580637 0.925760
9.721546 -2.524032 -7.078995
17.839239 -11.088513 -7.922569
31.926014 -9.967231 7.274708
29.643036 9.160326 -23.854031
12.424423 -5.603090 -7.480333
-13.362887 1.091686 12.085915
8.659195 15.141506 3.560397
38.079082 -6.348695 -18.619463
-13.196357 20.643749 -7.972275
6.217973 0.875072 -7.982189
-3.288373 20.222399 1.515345
-1.223256 13.060900 11.150372
-0.744275 13.285197 11.304221
-13.636755 0.589944 10.979414
38.011837 -9.270597 -14.768019
5.918723 14.611782 5.932747
-5.622755 -19.503363 -7.826023
-33.970047 7.919597 -7.575191
34.273895 -23.432571 -2.801888
34.676762 5.508412 -31.767389
23.778219 23.245773 -3.617476
-37.224483 12.522610 -5.126881
-1.112806 -23.629589 -4.765267
-25.255819 -18.807152 -6.625357
-31.845312 -11.292593 -8.362777
31.053669 9.492418 -23.989914
8.815148 15.185758 -7.078742
1.095907 -6.980241 23.158356
1.940138 22.849022 -8.145969
11.084592 14.942581 10.470777
-5.645909 11.414639 13.034165
37.170830 -11.330510 2.497981
36.824650 11.487503 -18.577517
13.465014 11.417047 -7.688469
31.462791 -15.281647 2.486707
28.926334 -23.892923 -8.713579
28.827011 0.070563 -31.866312
31.935921 -15.146383 3.865102
32.050152 -14.905984 1.888386
-12.364227 -13.720868 -7.415716
-27.762938 2.141710 -7.829760
35.698662 9.182074 -22.194651
10.166285 -5.881526 19.215553
-31.054831 -19.069475 -8.188624
37.026863 12.638807 -13.295003
-22.146992 6.549871 -7.522462
-26.015478 18.265781 -6.723498
16.089489 14.454329 9.375225
18.022877 23.252838 -1.590675
-33.055161 -17.090990 -7.985171
-7.141773 -7.877507 -7.650471
21.624731 -14.907984 13.221822
28.703600 -10.433503 -28.150770
-14.078010 -1.653181 -8.333680
-14.744574 1.121358 -7.043999
25.026348 9.910382 6.929419
28.008038 -19.036226 -19.151445
27.416407 -4.850365 -7.788864
34.114063 -17.172970 1.976699
15.437378 15.144440 12.317122
-20.106630 8.091911 -8.821604
-15.481717 4.056253 -7.773079
-32.564564 -14.146617 -7.628834
-23.800682 -23.064528 -7.487452
28.278767 1.089369 -12.782743
34.703350 10.339617 -25.759037
-11.032632 -1.227854 -7.899878
-37.079155 -9.308737 -7.727799
-28.125673 -18.444660 -8.080509
-6.158094 -5.821173 -7.491986
26.483351 -13.731968 12.406405
29.099546 23.076307 -18.212343
31.846094 -15.210608 -18.250544
32.316460 -10.400410 -24.780628
31.448254 23.190229 -16.576126
11.976436 -19.494055 -8.313523
26.448521 -14.411785 12.701354
-28.900280 -8.827555 0.595422
-23.965433 -14.555420 0.900287
25.339167 -14.541574 13.918506
38.336716 -9.853800 -29.651798
37.563885 -20.056862 -18.619007
33.993599 -18.015005 1.922338
31.635284 12.485556 -27.177391
24.115969 -15.299605 13.826799
21.074383 2.022357 -8.755588
5.935493 -12.963451 -7.469052
-27.491150 20.099678 -7.501101
-22.414131 15.042913 -7.713167
0.886681 -8.426821 -7.957403
8.172835 -15.811753 -7.748147
-29.126923 23.341871 -8.058143
23.160700 0.617921 -7.898338
16.384796 7.304945 -6.721417
0.975422 -0.643509 14.756601
-37.271671 13.219307 1.725735
0.654926 -23.421534 1.865166
9.138044 7.295492 13.419266
0.993191 -0.000790 15.560408
-11.107928 6.376432 -8.193799
8.046608 7.616927 14.943258
-4.670990 -0.999136 -7.509005
-7.537782 1.825963 -7.072226
-14.188250 9.553041 -7.143577
9.046141 10.495342 26.803843
-33.299206 8.675789 -7.657092
24.906200 11.852515 -7.325273
21.328039 -6.613978 -7.944049
-5.223650 -19.870928 -7.903832
33.099937 14.699543 -18.757137
-37.786713 0.787655 -3.987959
-37.252476 -1.352592 -1.868342
32.841763 -9.907324 5.814268
-13.156219 -23.024448 -4.019561
-15.741618 -23.448542 -2.659058
28.452562 -16.643105 -27.378868
27.790499 -18.271235 -25.919371
24.586939 12.806138 8.545179
21.733936 -15.250836 3.503738
-37.596836 1.750407 -5.723735
-37.394909 3.223860 -7.128348
-11.564434 -23.729305 -7.375119
-12.271615 -23.350090 -6.133697
-36.773930 -0.745454 -3.406475
-15.044918 -23.231350 -2.463034
15.808297 20.573732 -6.939637
34.298725 22.216875 -27.835506
-14.546469 -9.795203 -8.169855
-24.515652 0.102139 -8.275047
-20.001554 0.463850 -7.742723
-14.284986 -6.202791 -7.736458
3.505697 -1.171049 17.028612
30.018959 0.244355 6.879953
13.125008 23.422955 -6.012128
-17.387789 2.679880 -7.696820
-11.785105 -3.571626 -7.212525
3.279545 -6.303153 12.080414
32.232731 14.099216 -18.140293
32.370834 -11.239771 7.401086
-0.829101 11.933965 17.488094
17.436752 -11.447171 -6.860089
-7.789573 -1.986496 -7.205259
-16.866665 5.948458 -8.084249
1.568793 14.260069 12.993479
-8.533513 24.066612 1.180809
-3.885029 23.604107 -2.886999
23.816292 -1.853372 7.943491
19.772364 -9.271881 -7.836689
-19.424625 3.004162 -7.247302
-10.961159 -4.323227 -7.849741
13.145619 23.498333 -4.819421
20.985512 14.729665 12.752739
-9.961701 -2.396869 -8.444356
-17.491919 4.117414 -8.062012
30.482401 14.580906 2.488900
-10.028824 11.850357 6.792521
2.676616 15.072786 6.533163
0.950178 14.323757 7.519061
29.036106 -15.691209 2.456518
32.236629 23.288513 1.487131
-22.370621 16.331284 1.852346
-17.705774 -14.902318 1.600285
-28.464497 -3.321530 1.072989
32.563721 -14.681645 -18.658478
10.832416 -14.610180 3.308727
15.986002 -20.007193 -7.513500
24.831467 -20.381989 1.032195
15.727507 -1.919779 9.038280
-27.277473 18.182335 -4.963373
-4.247116 -10.452473 -7.742668
-24.634260 0.951163 1.139923
-24.678522 10.570256 -7.115251
37.315647 2.421387 -9.097583
37.955452 -1.097982 -6.102592
-0.928561 -15.052716 2.740816
-2.665808 -14.888683 4.250959
37.586651 6.809041 -14.273540
12.771539 -22.385674 -7.326653
8.840489 12.976808 23.501184
-7.295779 -9.753848 12.266972
-1.185405 -7.568976 -7.831865
28.959349 23.272623 -17.076168
37.814476 -4.799167 -2.033208
-21.705734 13.509527 -7.763465
36.203812 23.664707 -14.760168
-13.007756 -10.413047 7.111903
-4.675798 -9.556532 15.168265
0.924990 -10.853245 -7.698324
38.192719 -2.782369 0.897329
37.196522 9.251857 -11.667912
-24.063492 15.766932 -7.542991
29.314915 -3.040681 6.925517
37.172188 5.255024 -7.335759
6.799215 -15.330858 -7.205220
-30.001822 21.503448 -7.522166
37.468224 1.826071 -3.966435
-30.202171 18.045214 -0.559513
-2.704207 -24.061649 -1.843504
-37.514149 11.590258 -1.444969
-18.183147 21.113880 -7.761932
-3.803013 22.737432 -5.794747
-10.690652 23.504675 1.190825
6.818707 -3.272092 -8.541277
15.500667 -12.646729 -7.651089
-31.233456 -9.874291 -7.979957
4.148056 -0.934296 17.916521
-25.191597 -17.788504 -7.588321
-2.341821 -20.772543 1.579165
-1.928151 4.822310 -7.888524
-9.001017 11.738091 -7.307620
-8.573480 21.698084 2.150672
-33.741493 11.516154 1.634747
31.860769 -11.519607 -32.322639
32.473557 -23.190556 -20.049789
1.673530 4.354525 -6.937187
-9.359735 16.134880 -8.080004
15.923508 -9.873930 -8.030293
-14.339662 20.410364 -7.827138
-13.514120 -0.765600 12.381521
6.186924 -0.546549 -7.651107
29.622135 7.975918 -33.151596
30.134745 -23.999762 -0.403353
-26.598001 18.833717 -2.362934
17.955399 23.150127 -6.655514
-11.899445 -7.712544 -8.058990
15.006638 6.976962 16.291426
-21.783478 3.041774 -8.451136
-29.969893 23.138031 -6.938382
-31.357458 16.171991 -2.274371
-35.492310 -7.298604 -7.876472
-21.685495 -21.515594 -7.343913
18.643785 -17.070759 1.595316
-29.529732 18.498068 -2.001242
24.325396 -15.251698 14.240219
11.880968 -6.170363 10.697952
-19.477652 7.597907 -7.255790
-6.391474 -5.983377 -8.136316
-16.654520 17.882277 1.277159
-25.906403 -7.373378 1.731053
14.585347 -10.542783 -7.775203
-21.090986 -11.685472 0.992703
-10.872004 -1.099821 -7.599490
-15.506256 3.514084 -7.662050
29.664118 10.259608 -20.820583
17.387213 -15.058449 4.707026
-16.921696 8.749294 -7.124006
-5.757345 -2.747512 -7.603437
10.690587 14.282001 -8.074421
-7.479302 -17.567856 -8.346151
-31.999756 7.349509 -8.025125
27.173487 17.282389 -7.342720
-35.683361 -10.665925 -7.172744
-24.459839 -21.201363 -7.015709
19.757719 -11.830335 -8.101653
35.264030 20.139715 -29.793289
-34.244797 -2.074150 -7.735746
-33.562248 -3.423982 -7.727183
17.278008 -21.138861 -8.118596
17.609695 -21.737064 -8.126128
-16.448122 -19.781719 -7.750326
35.566017 19.339033 -30.327082
-17.044388 -19.736923 -7.486645
-1.197285 13.927002 8.393528
-20.220680 23.803087 -1.170752
-0.143481 13.767550 9.369481
28.552824 22.002480 -11.576700
-17.962845 13.169105 -8.078424
-0.768723 -3.604250 -7.420334
-2.804954 -3.470903 22.380676
25.498436 -15.436473 4.219213
-2.110136 -11.763988 13.993869
-15.372622 -5.460572 8.624513
-7.725051 22.917538 -7.964217
-14.749644 15.778832 -7.413285
8.254229 6.215700 -7.336345
1.301512 -0.131672 -7.822841
10.326189 8.824229 -7.876907
22.208153 12.333400 -6.861376
25.093178 -6.575759 -7.258253
15.557466 -15.714068 -7.453390
23.398741 -8.007289 -7.357870
22.073267 21.565231 1.812975
21.262070 11.595492 -8.290902
1.448804 -0.240649 -7.966536
15.866914 -16.615509 -7.806136
-15.277663 15.005590 -8.299188
25.540491 -3.204313 11.910644
28.504648 -2.544909 -15.575038
27.856396 -7.896212 -11.061387
23.376236 -7.425969 9.166306
-28.325270 0.813943 1.600069
-12.837168 -14.266559 1.556835
28.473349 17.893951 -20.857975
-3.655193 -13.985385 -7.270458
-28.954277 18.162029 1.238109
2.319237 -3.662852 26.816689
-0.743169 0.277668 24.839487
15.544845 0.177731 8.861923
-4.905027 23.045023 -2.700400
-8.429393 23.189301 0.228796
-37.331306 5.117570 -7.635680
-17.030731 4.441183 -7.611791
-9.570600 -2.930424 -7.521564
-9.352160 -23.021057 -8.083987
-13.344438 -23.932686 -3.183712
-37.550774 1.289648 -4.357524
-0.140378 -13.894978 10.940329
-32.068077 16.750948 0.667984
-30.150539 18.253414 -0.616827
-13.479645 18.057240 1.468510
-6.897788 -17.380508 -7.505713
24.183783 -0.117205 6.935648
-15.788653 10.076461 -7.675225
27.279016 -8.003539 12.585279
-31.358326 7.573256 -7.490508
-4.750668 -1.399756 -7.449812
-33.202633 -7.497058 -7.598749
-22.035152 -18.577873 -7.421731
-25.608686 23.642365 0.306911
14.130845 17.791227 -8.385369
-21.237040 22.865095 -4.350620
-23.670048 -14.586312 -5.978453
31.332542 23.607197 -22.532925
-28.030380 -10.485579 -4.534975
28.145288 11.612557 -26.145533
20.619364 -12.125827 -7.362165
3.495283 5.418503 26.687628
-31.950182 5.368440 -6.896478
12.404043 -14.588459 19.725534
-1.250315 5.915005 22.203327
-9.394309 -17.816557 -7.949446
13.951623 -15.273055 17.909626
7.581183 -7.703328 10.648005
1.134033 2.509169 26.281296
24.799547 10.706170 10.257852
-30.509071 10.295436 -5.370489
-18.231077 10.866903 1.354356
22.386738 -23.424782 -7.971247
9.598565 5.617734 19.945080
16.244778 2.216861 10.683907
6.925940 -6.890887 10.443215
0.570160 1.352763 25.663303
-3.896421 -23.431339 -1.025294
-6.528516 -23.677528 1.711804
-36.849533 7.253147 1.269066
-37.572330 10.745227 -0.823421
-4.578965 -21.050898 1.608966
-35.389515 9.702898 2.113058
-30.717707 5.618169 1.139303
-31.061058 10.461639 -2.792611
-8.284472 -16.416834 1.659852
-21.005293 5.680330 -7.984409
-8.678972 -7.015822 -7.170691
21.296398 -2.004567 -7.868996
-7.010818 -16.327623 1.973452
-21.007692 6.895221 -7.481468
-7.378457 -7.589765 -8.016033
-31.572647 7.401931 1.369234
-30.737429 9.954026 -2.055482
5.657535 5.259071 29.101360
18.148645 -23.807688 -6.592220
17.839262 -22.979975 -7.988953
-24.058174 14.888875 -2.166934
-7.827167 -21.878229 -7.643141
19.493248 -8.368649 -7.976252
-36.306244 6.066385 -8.043523
-0.507883 21.223091 -8.009805
16.459045 -11.517830 -7.680312
-29.492609 -9.422865 -7.622021
-23.010174 -15.384883 -7.796836
30.333258 0.837234 7.258065
5.892106 13.836470 -7.693033
-29.704729 -10.247718 -6.948508
12.067914 13.610604 23.580765
-24.856766 23.648304 -3.826312
15.786162 -11.609532 -7.341666
-29.830397 -8.677055 -7.507289
-22.973188 -15.439879 -7.734292
13.911183 13.678687 25.167639
-28.842266 24.150129 -2.911644
-37.898567 -4.732563 -5.554702
-19.308619 -24.294407 -5.143101
18.126314 -15.603986 15.475804
0.742705 14.239460 9.522024
-31.468861 22.032345 -3.084918
4.188418 14.959832 5.174612
-11.367279 -12.499020 2.843789
20.870218 14.545834 8.047621
30.461773 11.790188 -19.120274
15.110244 14.586901 3.001628
6.261668 -14.322320 17.012650
-27.722113 -19.727615 2.108075
-33.033741 -14.224110 1.983425
14.354719 -6.084385 22.443304
10.365949 14.488829 18.885431
-19.121174 -2.882364 5.870697
6.310818 14.284513 15.200890
-10.624752 -1.765535 14.315753
-15.069188 -2.023018 9.002424
12.752848 3.732843 -8.006675
27.862934 21.115236 -10.145931
26.918583 -10.334224 -8.308783
25.212580 -6.887351 10.509274
-33.617844 -0.752804 -7.880023
-15.828244 -19.677761 -7.505944
3.191048 -13.263374 17.714916
28.598812 11.853893 -18.485781
-18.244894 23.343410 -3.627784
-14.175764 24.147129 0.794040
-30.072254 -5.230868 -7.569489
-19.499855 -15.492883 -8.500087
-19.418917 -7.379521 -8.165288
-21.022762 -5.719492 -7.560355
-34.189522 -5.380741 -8.087455
-20.432299 -19.333786 -7.496875
21.667999 23.775362 1.425365
29.285597 15.323526 -18.398989
29.600176 -9.942848 6.836333
24.436604 -13.705063 6.368078
-22.184198 23.210279 -8.030249
-21.575041 23.194593 -6.693585
8.638244 -8.384536 -7.333263
8.155745 -6.562920 7.148579
-31.309349 11.475611 -2.733067
30.688101 13.412764 -18.174452
-37.433075 -8.086716 -1.640969
-21.836388 -23.879118 -1.782346
18.081728 17.645683 -7.318831
28.217001 11.824944 -16.227005
28.533314 -13.875959 -9.590459
28.527445 -0.075749 -23.939680
30.387295 22.750525 -25.303907
-22.029064 -19.555296 1.624539
-34.013100 -7.812431 1.707666
-24.643259 20.564739 -7.396262
6.271008 -10.258844 -7.567835
3.373690 -2.939215 28.944029
9.547815 3.079287 4.437785
32.141491 -18.503437 -24.886230
31.833996 -16.128069 -26.681677
33.325226 11.767857 5.563289
33.946835 14.768830 3.221872
11.130736 -15.096177 9.626482
15.211183 15.866143 -7.502308
24.786798 16.048889 1.214753
4.623821 23.114275 0.514669
21.761494 3.473410 16.780460
30.832979 23.074850 -8.806286
3.740128 -13.200199 17.163616
14.916899 13.113523 24.466063
27.636940 -14.525036 4.356010
18.261024 13.153840 20.690002
26.389959 9.600477 11.421253
14.620764 -6.508999 23.859119
-13.860611 -10.665502 4.073637
-1.771259 -11.580920 -7.436611
-13.324544 -6.680081 8.706700
14.586932 -15.443959 14.826496
28.782948 -4.752762 -32.712677
-28.844959 9.261186 -4.500446
11.637415 -14.927090 12.519221
29.160648 -23.878294 -13.983155
-22.846987 -5.917573 1.793126
-19.970808 -8.424768 1.863884
-10.427997 -17.320578 0.764921
3.621420 3.745380 16.060383
-31.604633 3.391127 1.468830
31.335392 -2.822402 -31.813297
31.512184 -23.223076 -12.090888
24.330982 9.500812 15.258412
10.433507 9.037718 28.891138
21.458185 -23.483294 -2.381887
0.956174 9.919740 20.504526
11.715882 -6.559159 20.104729
25.883509 10.072042 13.268716
11.758074 -6.084613 19.165216
28.234842 19.570328 -24.869028
-10.315820 14.477570 -7.613756
-0.118309 4.673436 -7.971295
1.156883 3.388588 11.304891
5.955901 3.496214 6.042493
19.339697 19.882887 1.203526
5.488205 10.805722 24.556431
-16.210192 -16.928501 -7.655032
36.567547 18.562864 -30.310181
-31.289566 -2.929563 -8.357967
-1.144970 -24.159786 -6.445004
-37.546734 13.306312 -6.473820
-32.542202 22.160372 -2.390488
31.578432 -23.618097 -22.054604
13.740047 -14.056020 22.332785
16.684372 -15.045645 19.289583
32.053806 -13.976917 -31.730099
-16.100084 11.116322 1.946144
30.577124 19.655756 -31.067549
22.385868 1.151556 15.683603
15.925250 15.824183 12.430625
25.095510 -18.548752 -7.358471
-15.199685 10.697498 2.637094
5.126182 6.797396 28.750172
31.925631 -16.557404 -18.883028
-6.066689 12.462170 -7.661645
20.903612 1.098829 15.299049
-5.329624 21.295315 1.339241
-2.281149 9.601703 -7.405050
32.532536 -9.753932 -24.564472
1.796335 6.835223 23.708349
-30.278448 22.129059 -8.059270
-22.125639 15.546922 -7.767179
0.420800 -8.217031 -7.950533
8.378883 -15.964046 -7.889127
-3.812256 10.769226 14.917036
-15.470485 -13.155620 -7.802726
15.746090 6.949023 -7.378216
-26.832605 -1.132799 -7.177377
23.616062 -0.434698 -7.766715
35.498684 -15.773245 2.193749
10.272540 -15.206063 11.052382
21.918720 15.435018 1.937544
15.504289 15.326380 11.539550
11.694594 -4.422693 24.286776
31.326639 14.907166 2.489547
14.557666 -6.813992 24.130175
-24.963875 22.827936 -0.575515
-19.828524 23.910563 -5.381735
-28.527832 -10.096994 -4.212505
-23.805986 -14.118878 -4.005695
-37.471931 16.664997 -5.963698
-27.828949 23.276951 2.123371
1.616962 -23.168207 -6.758978
-31.574560 16.942743 -0.007587
-22.653349 23.676355 -2.760350
-29.664885 18.467522 -0.601679
28.807623 -23.099249 -14.327648
19.524771 15.101871 15.124326
37.085957 -3.066455 -21.579855
37.381355 -12.933618 -12.292388
30.106552 -5.042524 -32.587193
2.352608 -5.877883 12.739372
24.585747 -0.509704 6.149183
16.852991 -23.172667 0.315654
0.415491 8.962834 21.549683
5.401431 8.520513 25.843050
5.810802 9.499376 26.574539
-25.198694 10.679341 -1.863387
27.577663 19.706120 -27.489035
25.312517 7.041507 13.567977
23.595449 7.608848 15.042260
8.068203 7.451137 30.957224
0.893234 16.346512 1.239206
9.859945 7.995928 29.823877
1.276009 15.485847 1.220109
10.228225 -6.851010 15.131908
9.088485 -6.977151 15.135550
-20.613476 0.088843 -7.420574
9.818716 7.642815 28.809483
18.572901 -10.933128 20.581896
7.616198 8.825180 29.448637
23.675339 7.447023 14.980718
1.633064 8.615425 21.904177
-13.044971 -6.045145 -7.736569
21.457613 -23.446184 -4.681323
-20.272959 10.832355 1.506936
14.494021 -10.315020 24.113613
26.545006 6.212121 13.139270
-8.037473 -18.541075 -7.552818
14.379313 -5.993204 12.309140
-32.375618 6.345815 -7.862602
14.980829 -5.139974 11.345073
-25.195055 -1.383222 -7.641786
-14.575312 -11.067165 -7.709990
26.373775 15.339116 12.451209
15.377914 -7.128115 19.070848
21.478476 14.933750 7.238173
-17.565443 -0.540129 -6.878375
5.832133 6.767594 8.261550
-14.763816 -3.501165 -7.755536
7.840978 -4.039504 20.557531
22.106966 13.056740 17.942780
17.351965 -13.389365 20.989374
16.057947 -12.795699 23.593201
26.271847 -17.483570 -7.971768
-14.427250 23.621761 -7.951620
-37.595009 15.427136 -4.447432
8.484663 0.367113 -7.706933
1.568531 -23.488338 -4.899043
1.665450 11.696301 18.760643
24.921230 -5.692955 5.516656
17.546776 -15.094019 3.035198
-29.654810 -9.726803 1.359357
-23.249409 -14.734182 1.234751
26.502729 -15.234002 11.894308
20.636696 -14.915255 6.716189
-24.349419 23.135542 -2.138953
-23.633556 12.902143 -8.021321
-1.530146 -9.195841 -7.280080
32.685211 1.588019 6.621763
-22.152525 22.845263 -7.320867
-35.090652 -16.176102 -7.409467
17.769873 1.541205 -7.992536
-30.100454 -20.616695 -8.231644
-32.369194 12.792609 -7.089553
-25.004585 8.810089 -7.415351
-4.687827 -10.988038 -7.865054
-7.221492 -8.195473 -8.309660
-22.986498 6.233469 -7.954837
30.125566 -9.961676 -20.485220
-21.650492 -18.466770 -8.011171
34.384113 22.848469 -25.266586
29.451744 14.400530 6.232869
-27.163372 23.623037 -0.120901
14.198011 14.858273 21.280523
15.934381 14.573118 20.443361
29.608063 -16.948978 -25.992651
-32.419342 -8.083571 -7.596155
-14.819065 6.810220 7.834049
10.584247 13.780607 24.055244
-23.010580 -16.346794 -8.029363
19.480957 10.756077 -7.693959
-21.923040 -8.756742 1.916116
-22.938538 -7.170593 1.900391
-30.578772 -8.194277 -7.381842
24.120918 18.031185 -8.155364
23.862772 0.535798 9.820400
-36.471268 -16.523867 2.703507
-21.598686 -21.830519 -7.359868
-1.090593 18.553389 1.497725
-36.083847 -6.729329 -7.738570
-4.301769 13.076289 9.931828
-30.527363 -22.049021 2.062732
18.750652 22.872595 -8.362626
18.705793 7.940805 -8.494082
24.595633 2.538530 -7.751452
-4.104181 2.809190 21.293488
-20.933472 20.500189 1.639332
-1.917648 11.860652 -7.382441
-3.715963 12.378762 -7.474731
-30.497795 20.449520 -7.912717
-12.865280 12.484724 2.075624
6.032012 -16.529263 -8.127464
-0.068225 -10.585382 -8.319674
27.501329 -18.118876 -7.751010
-12.982785 -9.634111 5.666742
-35.624504 -19.724270 -5.203646
-34.161125 -21.088129 -4.788417
9.764662 -13.356046 23.212303
18.046143 -15.004101 13.586308
3.934898 4.851564 15.500305
10.171879 -7.222491 16.548159
9.788146 -7.260827 15.126980
-27.295588 -3.179982 -8.109970
2.121964 -11.117830 -8.031968
-18.777235 -12.067355 -7.857643
-24.079556 16.407618 -7.188594
18.374380 5.709318 -7.784614
-20.358839 -14.148268 -7.798732
-28.391670 -6.255402 -7.361036
7.982586 0.977417 23.196545
-37.204136 -4.892365 0.972459
37.960335 20.675701 -12.842247
-20.006569 -22.887592 1.339330
17.054094 23.148123 -7.773027
-37.335930 -6.428154 1.148037
9.762257 20.680059 -7.310301
-23.682940 -7.523137 -7.735580
-20.870640 -9.971421 -7.382318
23.013554 -15.293921 7.248630
-22.643787 3.944376 1.546188
-1.448756 1.079777 23.695370
8.120583 -14.703600 10.853526
5.606211 -13.956587 14.171856
-27.077225 -20.471283 2.019102
-37.471329 8.284387 -6.623321
22.042305 16.808413 -8.419398
17.341364 11.981934 -7.634511
-37.214794 -4.051463 -8.088264
-37.093563 2.558684 -0.942102
-11.743162 -23.527176 -1.168805
-6.690284 -22.674803 -6.261399
11.313842 18.228971 2.475815
-17.748892 -22.186157 -8.285208
-4.180044 -16.800907 1.571213
-34.036682 -12.827173 1.406031
24.479460 -12.468450 -8.578112
-31.814386 10.608548 1.611892
-31.801790 1.381097 -7.788520
-12.735488 -18.282825 -7.358907
23.563490 13.243392 8.223073
14.299131 14.609962 3.763042
-17.025330 -7.649424 4.614779
-34.269791 20.298086 -7.113677
6.656136 -20.170876 -7.953174
-5.779239 13.816284 5.516185
17.442312 8.185716 22.911787
27.772623 -5.011594 -14.427970
29.287186 23.581127 -22.176397
13.131427 23.623312 -6.021430
11.748732 23.554134 -3.806476
8.437514 23.389084 -0.694336
26.076818 -7.781752 12.394394
9.961400 23.046816 -1.041395
-34.867630 -20.660456 -0.830357
10.855732 -3.041314 4.296188
-12.876750 8.588750 -8.096589
-28.224409 -9.316196 -5.276634
-31.471329 -16.508217 -0.853891
9.507016 -8.059054 30.230234
24.687878 -7.880971 13.900669
-23.871048 -14.053097 -5.370313
28.141796 -5.363912 -13.244484
28.374718 -9.961100 -18.659370
32.216820 23.344234 -23.450388
28.321360 -9.375069 -19.149355
7.426411 22.327030 1.993810
-24.796598 -10.640871 -0.885823
-6.189888 1.691936 -7.365969
23.101042 10.956262 8.489890
-36.603416 -17.653381 -5.484808
-31.667343 -22.399977 -4.878958
-24.751959 -17.437748 -5.991086
-22.225512 -11.138681 1.709391
-29.797993 -17.894777 0.738543
-32.501217 -16.447042 2.052429
-24.812387 -8.386873 0.593776
-30.416279 -10.655051 -5.701632
-37.137363 16.699961 -0.202841
-31.548220 16.301170 -6.384915
2.263777 -22.667334 -0.578077
-30.727140 18.518019 -6.395538
-21.749994 -5.056612 -7.217444
18.042234 -5.003479 14.439523
37.158180 12.994670 -1.764610
-19.257858 -8.157566 -7.728061
-8.317232 5.654387 15.258228
3.074815 3.164259 27.666134
-2.239853 3.789091 22.455854
-10.564118 -17.380074 -6.989834
-31.329542 3.157796 -8.151278
12.724762 -14.472831 17.635412
12.117751 -15.217124 17.759203
-19.639076 -9.097021 -7.151040
-22.711958 -5.680689 -7.679696
-14.574983 7.296596 7.842405
27.039762 23.581665 -3.879144
12.223843 -5.654017 27.367540
21.713432 -5.632126 17.229357
-8.985369 -23.160757 1.849688
-37.209915 4.011665 1.708434
-29.159733 -2.460421 1.041003
-17.080767 -15.011002 2.519877
3.106743 15.060784 2.578119
35.859699 11.814594 -26.590509
2.774869 15.569923 3.475936
9.377656 5.429919 -7.355550
2.481770 -1.918016 27.885748
10.163572 3.047200 4.951735
-23.346998 -0.979883 2.681265
-8.535372 -13.407410 3.853086
5.984149 10.363191 25.741739
13.162542 3.153811 26.903421
19.679335 21.540567 1.558544
5.353252 -4.696950 7.071495
0.953284 -4.453208 11.331391
25.572420 15.982889 1.887270
20.263472 5.811030 17.280586
-29.508551 -10.333411 -5.009049
-23.757345 -15.483694 -4.620121
5.720255 4.370491 5.796810
0.750122 3.980834 11.574089
-15.124244 -14.075933 1.858575
-9.733146 -18.878204 1.602146
-33.174950 4.485126 1.477519
-28.098963 -0.724965 1.973451
15.959265 23.518097 -4.833874
8.948498 3.987461 21.138281
26.275463 12.747747 12.543980
35.398926 22.992275 -24.455975
1.497090 15.630830 -8.039517
1.316739 15.365929 -7.592606
6.999609 -5.882545 29.859726
24.738970 -3.530285 14.266080
9.946850 -2.581989 29.568529
-33.465221 -20.479263 -8.038883
-33.611847 -19.718819 -7.726385
21.587111 -3.959859 -8.128917
-9.461875 -18.500597 1.794382
-32.619781 5.088977 1.405954
-14.931775 -12.430337 1.764341
-25.629244 -1.182967 1.600398
-10.368090 -7.422549 -7.540187
-30.901701 10.018795 -5.609972
-11.166786 -16.525768 1.493678
-21.419111 3.498937 -7.884377
-30.594719 3.205351 1.559978
-37.286148 4.491006 -2.594637
-9.240942 -23.557068 -2.503664
-8.659838 -23.141497 -4.303241
11.469481 6.103294 10.294174
-37.756683 5.906884 -4.336257
28.039015 -17.754803 -19.958809
27.932768 -11.419488 -26.842876
-10.418675 8.265232 10.941474
18.451557 -6.181424 19.771255
29.519527 22.531441 0.308574
5.240639 13.892262 19.592445
-31.825644 -11.074080 -7.270582
-25.410891 -17.782040 -7.704663
33.596222 -18.410767 -25.440235
21.436390 14.517786 -7.782658
33.752621 -15.817664 -26.918898
0.880992 -13.603069 12.601296
16.207970 -19.095215 -7.776234
-15.346395 -22.734589 -7.653335
-37.109516 -1.310709 -7.275435
-15.200247 12.280742 -7.544967
-1.884622 -0.692874 -8.230364
-15.052859 21.591576 1.516795
25.544870 7.096477 -7.670518
9.214766 -8.297965 -7.923652
-20.619272 23.024765 -7.677711
23.776382 8.737276 -7.468575
8.370278 -6.613528 -8.289999
24.642565 -13.461246 6.487456
10.176363 10.715114 28.411320
-34.279766 21.270355 -4.413411
35.797604 11.771378 3.714986
24.219175 8.592446 9.590933
12.421681 -11.796405 -7.501317
28.774523 4.480437 -7.592556
35.209373 -11.081876 -19.579412
16.230410 1.657616 11.090463
35.177967 12.798670 3.278586
17.908905 19.588923 -7.017110
36.037956 -16.727943 -25.353989
17.116163 19.779539 -7.595092
20.547081 -23.846451 -7.861644
7.689010 -15.747999 3.283459
6.134318 -14.805564 6.032096
-1.290404 -10.395207 18.329580
-32.016766 -6.119593 -7.317602
-0.984683 -9.503897 18.844902
-20.215502 -17.664867 -8.241488
0.417120 10.450365 17.874058
-19.960636 -17.715221 -7.755670
-32.723526 -5.609570 -7.442671
-13.641135 -17.844168 -7.284467
-31.154430 1.187724 -8.227144
23.724037 -13.267237 7.531912
16.784393 -14.883131 16.902735
14.431204 -15.754047 17.085999
11.276891 -15.078239 19.714924
-12.077743 8.340771 9.539007
-37.271236 16.766800 -4.412708
2.669540 -22.852280 -4.803172
-12.633284 10.111954 9.183981
-16.167740 9.076960 4.534787
-18.785013 7.233109 3.819387
-5.665073 8.165766 15.670673
-4.564147 9.981967 15.690872
-7.203088 7.126520 15.555024
10.356191 1.449051 -8.053133
10.400778 14.934146 5.726200
3.883091 -12.045011 19.939848
-6.213086 8.629346 15.431810
-16.841753 8.266125 4.749132
-5.855776 7.741239 15.790081
-4.717409 8.861996 14.723972
4.901870 -3.829867 -7.661187
-16.964865 20.566330 -7.671215
-12.986121 -3.238502 11.834229
-14.536277 6.539957 8.069718
31.941795 11.592578 -19.095034
38.017262 -12.075181 -12.003788
36.991245 -5.659647 -23.579752
37.454666 -14.674435 -15.045916
37.267475 16.405577 -18.847191
8.258868 14.861245 7.450875
37.297558 -3.879397 -20.551048
-5.658752 -14.394245 3.517851
1.154920 -3.388926 25.214621
-1.682859 -5.392003 21.523180
27.605282 22.118402 -9.692202
-30.409172 -3.950902 -8.010391
-19.222866 -15.578334 -7.403910
2.039630 1.075860 27.115808
-0.504793 -11.267120 17.219172
0.245327 -3.578889 24.015903
21.792387 16.775272 -8.115392
2.061533 1.071306 26.909960
12.281102 10.898968 -7.920370
14.327381 8.641705 -7.016983
-5.557973 -0.129955 20.058191
16.823395 -5.919458 13.861312
-20.788620 -7.683756 -6.965015
-21.713963 -5.944193 -8.012020
5.104517 2.909289 18.225082
16.962902 -7.389857 19.751381
13.731000 -6.608081 22.045792
11.361310 23.127871 -7.365099
-7.533379 -13.149516 6.516899
1.893598 14.463152 10.271996
-23.085119 14.818921 1.849838
-25.824209 -0.642594 1.895126
-3.197976 -22.733561 1.447384
-20.220356 -8.336025 1.875720
15.127482 15.063247 22.111267
16.489925 15.055226 19.853857
16.235519 -6.655190 23.045927
17.623049 -7.148756 20.910650
