ply
format ascii 1.0
element vertex 1564
property float x
property float y
property float z
end_header
12.614180 -7.878644 26.546223
37.404029 10.967139 -31.513498
31.845505 16.455935 -31.758391
37.513569 6.766310 -27.413499
37.513133 -18.821945 -2.256741
37.470429 -17.260709 -9.157841
37.523188 0.115887 -25.915759
37.489426 2.852881 -26.009309
37.498319 -17.162164 -6.195622
37.531815 -0.294925 -19.782844
37.483827 4.947377 -24.780221
37.471327 -10.498330 -8.937091
37.492363 -16.132599 -4.357152
28.128316 -1.655056 -11.516830
28.128017 -2.613565 -10.707194
28.100931 -5.100842 -16.075777
28.123878 -7.351859 -13.785944
28.090286 -6.925504 -10.808351
28.124578 -2.093770 -15.685176
27.677343 -6.707844 -7.735281
28.064558 1.187668 -15.588870
10.068136 3.430448 23.070382
28.297469 6.642273 -8.566091
17.171156 -1.670828 11.141994
28.152174 4.411083 -10.564128
28.076251 9.388441 -8.345948
28.148430 7.111985 -10.072432
28.132349 7.704353 -27.497430
37.520138 -2.321005 -8.295589
37.473092 0.966831 -11.374921
32.812944 -23.454515 -13.573885
32.907173 -5.145802 -32.076607
37.498450 -18.851317 -14.955783
37.539053 -5.753413 -27.526869
36.472749 -0.663088 -32.041798
36.445933 -23.499433 -10.125118
35.908855 -23.431537 -12.552398
35.973398 -3.836997 -32.206721
28.127506 -19.248834 -14.133625
28.093769 -5.702237 -28.245827
8.551463 -14.976195 10.817279
37.576417 14.484271 -12.311734
9.253311 -12.638572 24.441615
35.524456 23.512087 -17.501664
37.560179 16.387064 -28.900952
37.230531 23.254561 -0.514501
37.347623 21.386765 1.061592
37.116139 17.896044 -31.232728
37.445344 15.410539 -27.957281
5.926488 -5.289305 16.860201
37.452651 20.542546 -22.984114
37.486573 22.424969 -20.583444
7.245159 -6.021038 17.104314
12.980625 -14.488612 22.141437
17.155607 13.701602 21.975156
16.319124 13.619141 22.763826
37.532516 5.327270 -15.819405
37.471968 -7.222502 -3.122601
37.497175 3.263862 -15.358530
37.518409 -6.734803 -5.536147
37.498441 -14.148725 -0.200982
37.432029 8.805802 -23.269241
28.128509 15.401194 -9.880470
28.226742 22.824715 -17.572036
37.441269 10.968544 -10.547358
37.420171 -18.575381 -5.052741
31.408144 -2.319838 7.733647
37.239676 -2.268016 1.810408
37.516208 4.064640 -26.931804
10.556224 -1.977587 28.538942
22.653855 -2.277279 16.227827
26.715205 -23.416676 -6.346589
29.578070 23.427338 -9.860019
4.219655 -12.813147 19.087959
-0.238118 -12.721834 14.821830
32.638784 8.413100 6.539995
16.817978 -6.411002 15.973223
37.263770 23.078785 -15.369876
-7.837991 2.870032 16.785436
34.908525 -20.265027 1.637929
36.830261 -3.180024 2.299908
-0.413793 12.775393 14.560204
32.469346 -4.783242 6.675050
28.098455 -6.674899 -27.741841
28.133896 -18.906386 -15.194491
-18.285375 -0.619850 6.698707
37.472868 5.089290 -28.687130
37.444464 -19.375121 -4.178250
37.486961 -11.036612 -29.917459
37.494837 -21.629819 -19.926277
31.754627 1.673724 7.327541
28.154549 -1.447108 -29.868020
28.042842 -20.351139 -10.418905
7.096292 -1.080997 5.563098
9.397726 23.202581 1.375181
7.193070 23.522125 -1.226867
-0.069145 -1.150260 12.712499
24.770315 -9.470627 14.349192
28.074921 -3.138213 -14.833463
28.068347 -5.458660 -10.834823
-30.598199 -23.118269 -4.934635
-37.193849 -16.464090 -5.041370
28.112318 -6.250586 -11.651225
28.176459 -2.099530 -14.361078
18.045674 14.612619 21.036420
15.845881 14.709415 23.184646
37.523477 21.374748 -0.802377
37.557418 9.892540 -2.394397
37.499862 6.475263 1.046027
37.478063 19.944599 -1.805683
28.171896 -1.386660 -22.649942
28.166848 -13.619892 -10.404411
28.161314 -8.916599 -11.690677
28.109302 -2.845548 -17.833623
37.461819 11.806496 -10.972631
36.653174 -2.696691 2.490365
35.541752 1.729560 3.702687
31.140454 18.471444 -22.639459
21.955257 23.433604 -1.901060
37.511441 2.215895 -4.096677
37.499194 6.666580 -8.843979
37.531344 -0.060845 -2.283042
37.500271 4.355756 -6.560406
28.115324 17.274431 -13.626811
4.322094 -10.481792 23.608781
28.032001 -5.046673 -9.837319
28.145971 -1.094866 -13.876491
12.592057 14.688087 20.289710
28.107004 -0.291532 -10.631897
28.156565 -1.515320 -9.402345
14.822299 14.971368 17.978780
37.534273 2.325740 -12.930906
37.555684 -4.443400 -6.422774
37.460523 2.867293 1.215890
37.478805 9.987345 -5.540615
36.464896 17.663027 -20.362710
35.284480 10.109210 3.800599
25.802832 9.969864 11.112377
28.149670 -9.821272 -10.950568
28.091842 -1.985825 -18.554369
28.160920 -1.026754 -15.088409
28.075873 -6.850193 -9.789641
33.101547 -2.037936 5.974251
29.142355 23.450326 -12.624099
36.266375 18.050489 -20.814904
37.472849 -12.311404 -15.957085
37.514073 17.955445 -10.894172
37.542349 -6.989675 -21.022563
28.097218 -7.162870 -8.737854
28.088716 0.024964 -15.786398
28.030463 1.513770 -16.985994
28.062544 -7.328626 -8.271116
28.057464 0.465166 -15.978048
34.217582 -23.437236 -21.229667
34.516301 -13.086944 -32.089955
37.468253 11.498540 -10.030437
28.118341 8.526764 -29.090861
37.491771 6.506107 -5.808698
37.437703 5.588349 -4.305568
37.467904 4.753546 -3.377790
37.479452 3.278465 -1.956021
37.482087 -15.764049 -12.770358
37.459213 -4.078047 -24.150131
28.130740 -8.733031 -10.478964
28.096602 -6.172719 -21.809730
28.110242 -1.542380 -17.260507
28.124388 -13.292837 -14.935871
2.481890 12.082860 18.884136
28.072335 -17.136083 -31.146799
28.223462 -22.862959 -26.025469
28.089526 -7.765128 -22.043866
28.062653 -13.449699 -16.262315
37.522965 3.926734 -9.010274
37.434246 -0.060705 -5.019086
37.461766 -18.982262 -23.519386
37.444463 -14.569945 -27.494631
31.407079 -6.367514 -32.094907
28.082861 -6.036260 -28.736447
28.118391 -19.874446 -14.674376
28.119222 -20.294602 -14.086341
19.386328 -23.435589 -3.147539
31.396945 -23.442431 -14.661512
28.069553 -5.239317 -29.194945
2.176162 -4.244125 14.388981
10.457683 19.141880 -7.750516
30.493148 23.409082 -4.294490
9.029933 14.994194 7.043210
37.513578 19.971277 -16.565554
28.093046 -8.743524 -17.318802
28.106731 -8.497147 -16.858280
37.466281 17.609211 -14.350988
8.280564 -6.249834 7.026780
36.807305 8.157283 2.608395
36.735091 23.339294 -24.122408
31.578900 -23.420174 -13.626887
28.115363 -19.818343 -13.844151
37.506332 -14.149872 -12.182576
31.400843 -4.862825 -32.070561
37.498449 -2.896718 -22.512243
28.069970 -4.791132 -28.535958
28.085832 -20.280244 -13.029353
9.907954 12.119482 26.274266
28.079789 -4.546181 -28.994781
37.505469 -10.614151 -15.287705
37.503704 -6.349041 -19.283375
28.099737 2.110611 -15.369696
8.750832 -5.166678 19.842150
28.160700 -18.597233 -18.268081
28.129207 -9.332932 -27.002086
29.448216 16.844432 -19.349213
28.140981 2.557129 -14.430224
30.433553 13.965946 -18.294191
28.086447 7.801768 -13.539391
28.130586 10.047919 -11.768345
28.158454 9.056365 -11.446044
-25.987690 18.004257 -0.221458
16.275357 5.863054 14.121917
16.691775 23.411647 -3.130405
28.114741 9.375902 -12.553997
3.855659 14.423351 13.192773
37.524021 -3.773231 -2.127911
37.528387 6.518182 -12.529208
33.843361 -23.464411 -14.493551
33.656540 -5.338081 -32.066291
37.534263 -3.340098 -29.741649
37.476434 -21.337856 -11.990444
-31.231719 17.162175 -7.244572
32.801578 -12.747043 -32.109203
32.922582 -23.421108 -21.421910
28.149689 -22.945695 -16.081210
28.144756 -7.441730 -31.694342
17.364353 -6.913643 18.263611
12.681008 23.400586 -6.016665
28.179609 22.957600 -21.371999
37.458017 12.054691 -14.438159
37.507092 14.399094 -9.266588
37.558156 -4.280713 -14.116510
37.500389 -9.162993 -18.707537
37.488716 -10.550804 -18.523856
37.524247 -5.487895 -13.052459
18.635786 6.211520 17.173199
-23.968364 12.362819 -5.958739
37.485599 -5.172097 -15.109603
37.556575 -6.063093 -13.923014
37.511680 -6.271055 -8.192434
37.476731 0.225738 -14.983125
37.487535 -2.693675 -13.222222
37.532146 -5.185477 -11.720472
37.535102 -4.899989 -10.810543
37.465522 -1.981295 -13.867662
37.504622 -7.096917 -5.064007
37.488026 3.549642 -15.834770
28.117199 5.919530 -18.729185
31.351640 -9.571691 -22.157223
28.898504 -22.872839 -26.162626
28.856147 -16.907128 -31.541943
28.137737 22.732028 -12.148422
10.863747 20.411511 1.655879
33.702330 3.254976 5.500566
34.867916 -13.584895 -18.357716
35.011657 -9.726203 -21.605109
29.031901 6.269384 -32.080030
31.646559 3.532508 -32.116756
29.141700 -23.452102 -2.278909
31.838379 -23.459417 -5.181325
14.652965 -15.051686 5.891032
31.614882 -5.619787 7.525258
31.870442 -9.922400 -24.032049
11.933350 15.044302 8.818674
37.484158 6.036034 -5.986587
37.483289 2.858261 -2.915300
28.178542 23.044742 -16.882956
37.480610 13.711548 0.439472
33.459532 -2.091804 5.511697
34.270355 -2.403592 4.642481
25.405340 -23.439003 -5.760062
-37.525353 -10.467581 0.085027
28.123206 9.322979 -14.208530
-24.327087 -23.441327 0.340988
28.115023 -1.651763 -27.961298
28.035395 -19.210545 -10.555831
28.674070 -19.635046 -30.323646
28.687730 -21.818550 -28.033444
35.527134 -14.128696 3.395383
37.485004 8.610147 -5.368493
37.472498 2.642450 -0.718812
37.495373 17.247784 -2.173545
37.534982 -6.468706 -13.181830
37.516682 -4.849398 -15.540590
37.540028 -20.311657 0.065178
37.489658 8.960304 -29.074507
37.521752 -19.729137 -10.565221
37.550057 -1.107427 -27.763337
37.506104 -10.626180 -29.559017
37.545185 -6.804312 -25.227053
37.489628 -21.093491 -19.640413
37.433678 -20.325451 -4.053831
37.530353 -16.472776 -15.404140
37.467480 4.864494 -29.322186
37.557569 9.466189 -24.839205
29.150415 23.445978 -3.624940
-0.471883 -14.161196 10.186850
37.508006 -15.888176 0.243232
28.131242 6.597857 -12.127955
28.330626 -23.401567 0.624675
28.837172 9.795927 -32.189771
37.458109 13.930502 -3.265952
1.219210 7.113889 23.721044
17.026501 -7.472500 22.002634
16.247840 -7.134398 22.601665
37.462265 22.875587 -9.058179
37.491957 8.711092 -20.197308
23.232961 -5.891850 8.560725
37.515985 -11.860798 -0.469402
37.428977 -8.874618 0.924189
37.536235 9.376705 -17.812802
19.508376 -10.197884 19.701257
14.177874 -9.931868 24.937709
37.452266 21.511202 -10.650355
37.512531 9.255352 -0.955523
37.561854 0.422011 -27.487992
37.517725 1.275989 -28.053054
37.504700 -18.740282 -8.480339
37.505051 -19.604902 -7.729199
37.425479 8.052857 0.635512
37.551885 12.167082 -0.420340
37.495441 8.023147 -30.500954
37.493022 3.770926 -10.292975
37.474356 -1.702464 -5.178230
37.615924 -22.252357 -0.913349
30.420498 17.923912 -20.560059
25.346877 -17.707900 1.579579
35.576811 -5.468859 3.571258
37.561097 -3.625264 -0.662404
37.493201 8.408557 -12.044165
36.426637 -3.815084 2.744282
28.200263 17.927857 -19.379240
26.330036 7.769011 4.962463
30.640908 23.408404 -14.678669
37.514349 16.570278 -6.053514
37.512021 18.154996 -5.511925
37.502665 19.587800 -4.575773
37.513151 -12.613570 -30.188097
37.517141 -19.885341 -2.288707
37.502786 -21.434580 -21.458210
37.492520 6.640278 -28.254803
37.557539 8.741256 -26.512916
37.535617 -17.953912 -0.277323
8.338180 5.926325 18.362630
37.499886 -2.395865 -23.297447
37.469986 -14.510652 -10.972402
37.483819 5.631196 -25.012967
37.497291 -16.897395 -3.162946
20.790681 11.829345 18.314885
13.033180 11.407940 26.102067
28.102439 16.868263 -12.698311
36.514478 -6.290739 2.590641
28.098008 -5.313314 -23.071215
31.454956 23.395571 -13.149277
27.846577 -14.967309 2.720200
28.124090 -14.482306 -14.184040
28.168357 17.954329 -16.995847
35.395597 0.500926 -32.077395
34.998327 -23.406042 -8.220966
36.471906 3.156246 -32.112368
36.014113 -23.522405 -5.443576
22.582502 15.029610 5.457976
28.118910 -7.918989 -27.244196
28.175221 -18.860079 -16.940695
34.968195 11.029908 4.147980
32.458013 -0.196704 6.715747
34.942031 12.750342 4.113098
35.091814 13.117144 3.966583
35.968618 -21.118085 1.634140
32.708309 9.282919 -32.130951
32.887767 -23.398868 0.300185
32.530170 -8.967142 6.657690
37.496838 12.609118 -5.001421
28.085614 11.817810 -9.553536
-19.488126 8.165976 2.277829
28.135180 10.993673 -14.731455
37.522363 -20.878894 -22.547656
37.562005 -14.611658 -29.763208
37.511904 9.580417 -27.809015
28.252934 13.873915 -31.786133
37.548583 -19.119761 0.778894
37.454736 7.794679 -7.851847
37.485535 0.985711 -0.957136
28.124377 15.353130 -12.638397
35.552427 23.420865 -14.084400
37.440432 -9.325828 -3.454741
37.511225 5.032454 -18.138293
27.725995 -5.273099 5.083645
17.845118 -23.386958 -0.760394
28.153988 13.722413 -13.860875
37.447194 22.760278 -7.399126
28.102056 -3.340095 -25.783877
28.130684 -16.986009 -12.027187
28.152484 19.131237 -17.674736
31.647735 23.411380 -16.653188
37.501924 19.322029 -5.084460
37.510407 16.724494 -9.457186
37.471524 1.525676 -23.644618
37.494999 -14.801184 -6.987147
37.477976 4.344525 -23.140027
37.533821 -19.210025 -9.531154
37.519518 -14.504210 -4.368183
37.572048 -0.530557 -28.003231
37.485578 -14.325600 -10.504353
37.468554 14.422070 -17.303178
37.498161 -1.729592 -23.098731
28.170792 4.892582 -9.559762
6.652764 -11.598053 23.827861
28.126490 9.299525 -29.663908
17.287434 -0.659970 10.928110
28.168614 4.221384 -9.240575
28.111636 -19.212634 -22.504882
28.306362 -14.311385 -27.799794
28.195460 7.755685 -9.379955
35.324773 9.634504 -23.129885
35.384448 -2.825663 -32.094252
35.201177 -23.457899 -11.792853
12.285747 14.799881 19.068808
14.040679 14.965188 17.651698
32.746548 -23.451485 -14.129942
37.341212 -0.010689 -31.809503
32.184816 -5.239303 -32.074954
37.470686 -15.127659 -0.448721
37.352405 -23.132055 -8.944737
37.513484 7.869041 -23.772810
37.488670 -6.644414 -1.932269
37.547200 7.060531 -15.581814
37.414748 -14.359377 1.124815
28.074157 -4.267580 -14.476255
27.673003 14.947304 4.068598
28.112427 -5.930796 -12.479090
30.273229 -23.451105 -3.902036
30.002354 4.916745 -32.101290
-25.713045 -17.882973 -1.132043
13.098602 2.472258 7.309944
29.377554 23.390282 -8.989933
28.139483 14.891507 -8.439690
37.475534 18.849381 -0.715571
3.628336 -10.714731 22.428933
2.203664 -7.498256 24.351164
37.552492 13.077690 -0.783123
37.507794 2.101607 -30.495402
37.481630 -21.507384 -6.838850
37.684553 9.293789 -25.693449
37.473799 -16.572851 -0.083635
37.480943 -5.030022 -3.788152
37.523681 4.742771 -13.530540
-1.298550 -11.529089 16.197397
35.156628 0.020236 4.058058
28.133180 -1.268426 -31.129623
28.177946 7.116552 -22.411196
28.056317 -21.954854 -9.803350
28.141834 -1.560024 -12.276200
28.110528 -3.235161 -10.650867
34.450526 -23.424067 -9.268288
34.196909 -0.418940 -32.097428
35.110686 5.204196 4.049381
37.459515 -13.879758 -9.227561
37.518802 15.323043 -15.453565
32.314128 19.474425 1.643641
37.458735 -0.573530 -22.612120
37.290326 15.084884 1.785213
33.685550 6.026844 5.439696
34.270856 5.866393 4.900346
37.498584 12.156703 -4.936526
37.540107 11.808756 -1.975837
28.129461 13.797793 -10.770571
6.510773 -11.362027 24.136526
37.543743 5.551075 -16.720944
37.452616 -7.978489 -3.337582
15.835936 14.946717 17.549092
37.502139 18.888102 -0.053827
37.525346 22.120806 -4.474370
37.492284 -1.782718 0.328022
37.492861 0.864021 -1.271892
37.476765 7.312692 -8.085924
37.471531 9.192031 -10.528890
37.459086 9.378601 -9.492621
37.488502 -0.525203 0.229866
28.127433 18.322359 -15.485070
28.103420 -2.545087 -18.550198
28.166913 -10.018539 -11.616865
28.125501 9.072446 -29.137280
28.106688 -6.685937 -13.712324
28.104884 -5.201066 -15.441866
31.783815 23.376819 -7.670253
32.624291 1.840556 6.560571
37.485916 15.516351 -31.372701
-4.553356 -2.623044 -7.736439
-16.877902 10.479720 -7.735790
6.809493 4.857172 30.683293
37.518115 20.719155 -25.664213
34.894871 14.844835 -18.407210
5.383604 -14.988206 4.259489
25.729458 9.398996 13.424924
33.246128 -18.265038 -21.626992
33.492038 -12.540939 -26.907889
37.437405 -19.357188 -23.856834
37.613436 -14.834043 -28.029191
37.492408 -4.319472 -27.521892
37.466937 3.906747 -19.137133
37.476556 -10.568080 -5.199931
37.482429 -2.249733 -25.294295
37.494507 -16.703026 -11.273261
37.485768 -18.731597 -13.476663
37.506173 -9.062070 -8.203908
37.527797 0.802055 -17.784670
2.035375 7.643633 24.202010
31.016592 -22.702442 -26.301169
31.031080 -17.704166 -31.295771
36.979596 -12.698304 -18.483491
37.231396 -9.653576 -21.781257
37.475171 -13.910140 -17.367427
37.183847 -9.202665 -22.294385
34.557381 9.739966 -23.779270
31.826396 -18.351272 -23.969164
31.888428 -15.661043 -26.852387
28.133648 -16.056621 -12.691828
28.104184 -3.958894 -24.549638
28.147623 4.292798 -24.117591
30.860740 -23.437886 -6.417810
31.219273 2.242276 -32.109020
28.114370 2.407263 -28.388322
28.134816 5.073713 -23.818959
28.166592 -22.650458 -11.717045
28.137506 2.016492 -26.517131
28.132355 -2.665966 -31.315601
37.537875 -6.824952 -11.515832
37.482178 -2.909033 -15.675565
37.539870 2.997224 -14.432419
37.477749 -17.498932 -18.418159
37.539525 -5.396814 -6.110340
37.485385 -9.303439 -26.670804
32.640734 -20.717998 -29.370505
33.130195 14.762913 5.772663
15.902616 1.896393 9.898241
28.090463 22.155734 -26.553863
32.645136 -10.820625 -19.651801
32.454733 -16.977122 -26.088954
29.602041 21.880392 -27.857149
37.505119 -19.372435 -2.302068
37.489752 6.680827 -28.061095
-19.745839 4.743303 4.258219
37.484424 -16.160005 -0.444616
37.546171 8.310957 -24.823338
37.461180 -10.825851 -9.014919
37.494415 -14.834622 -13.312387
37.512184 -4.506951 -23.543957
37.508329 0.177055 -19.052427
35.171968 15.728152 -26.840796
37.379840 12.773935 -27.379101
-33.464089 21.767617 -5.162855
32.629883 -9.789374 -23.676451
31.138413 -10.314167 -25.120579
31.351985 -16.430593 -19.044996
37.517454 -7.780997 -5.385124
37.472188 3.432064 -16.802919
37.534372 -3.117012 -5.919153
37.514899 2.681134 -12.439998
37.450876 2.020306 1.021765
37.485012 9.781222 -6.626042
37.525569 3.563175 -12.785755
37.573132 -4.603998 -5.622520
32.458643 9.589349 -22.928523
32.878911 9.641861 -23.405575
-32.470760 14.647972 1.049642
30.169374 9.656617 -22.283735
37.461195 -10.835963 -7.463205
37.487408 1.776774 -19.507638
32.015313 -23.450483 -15.093084
32.404211 -6.081601 -32.067426
37.416317 -7.705799 -2.932595
37.552472 5.378157 -16.464888
37.483869 -6.686982 -2.532902
37.542485 6.178915 -15.746190
5.489650 -6.625002 28.408674
10.248517 23.386139 -6.942202
37.563522 -15.736249 -30.507697
30.187400 -11.245109 7.569797
37.478846 -21.426790 -24.915220
10.274191 6.366829 9.189417
37.459053 -22.572913 -19.979219
37.531574 -11.075208 -31.231843
30.880155 -20.272348 -29.674632
23.605519 5.963619 15.536823
30.700990 -19.790121 -30.067712
30.491005 -20.623860 -29.399757
30.681811 -21.444153 -28.386358
10.053642 5.979272 29.042364
28.090447 -20.373295 -25.634019
28.119151 -17.159653 -29.558246
12.229256 1.725212 26.254516
28.059737 19.453093 -28.129158
28.071508 18.077127 -27.065716
28.962472 13.152728 -32.048351
28.222322 19.592480 -28.648833
28.100247 19.327862 -29.007708
37.515826 -16.464023 -2.331002
37.508907 6.907384 -25.519306
37.456865 -9.534405 -0.196005
37.529211 8.659841 -17.751332
37.519760 -12.121394 -0.089452
37.504134 8.845349 -20.717169
-16.916834 21.026433 1.628556
37.503546 1.130367 -25.339007
37.444563 -7.383043 1.720227
37.490718 -16.838818 -7.907845
37.483303 10.564167 -16.217592
3.362479 6.302678 12.290122
37.330471 -9.067593 1.711778
37.515922 10.603808 -17.577505
33.096021 -10.032111 -24.217359
33.262949 -15.560044 -18.521417
34.896537 -10.306861 -20.359717
35.168454 -11.497372 -19.181181
35.190495 18.678639 -30.827329
35.098944 -21.391763 -28.652759
34.618889 -19.850787 -30.061385
35.132070 -21.055864 -29.002822
35.324219 -20.670636 -29.452239
33.666824 -15.444280 -32.001435
33.774613 -23.293439 -24.211049
36.681451 -15.117372 -31.867110
37.041362 -23.204944 -24.110710
36.699331 -22.262730 -27.406827
36.860140 -18.883079 -30.800591
28.148555 3.816438 -10.251594
28.075975 7.877572 -30.581431
30.986287 10.968630 -26.051943
29.244232 9.566196 -23.313094
31.107497 9.617997 -23.699362
29.067821 15.970856 -31.831354
36.856546 -9.815218 -23.641188
32.045853 17.869798 -20.541254
36.706929 -14.630289 -18.259116
37.528103 -17.181776 -17.901605
37.502497 -9.358544 -25.980513
37.558504 -7.553095 -22.810077
37.504124 -14.287456 -16.507222
37.082347 -22.676423 -25.968189
37.376426 -17.492670 -31.263752
37.483251 -13.440153 -16.545801
37.562129 -7.839911 -22.360243
32.854236 11.428320 -19.020065
33.494775 10.453711 -20.226804
1.399813 13.016253 15.810360
8.274810 15.002810 10.222808
35.627872 -10.814187 3.570262
34.351612 11.410697 -19.042165
37.492016 -16.552847 -5.209873
37.474363 3.725726 -24.845344
37.518293 -4.150227 -31.042686
37.472631 -22.301382 -13.075208
37.507422 -10.484271 -1.435438
37.547037 7.168978 -19.347412
28.340867 -16.980920 -18.993030
28.481584 -10.164037 -25.153588
30.057372 -13.309269 -32.209869
29.819250 -23.405654 -21.851413
28.144676 -12.207080 -29.802020
31.753987 5.956115 -32.097273
28.161745 -18.310347 -17.543757
31.323002 -23.451519 -2.725003
28.109186 -8.566857 -26.336410
28.123708 6.057990 -28.328384
28.133566 3.273354 -14.980099
28.128970 -21.513755 -20.959597
28.043116 -19.003712 -10.927623
28.108326 -2.246517 -28.186214
32.836313 -23.449569 -12.735596
32.853632 -4.291148 -32.083401
28.121572 4.820654 -30.602391
28.109991 9.196744 -26.548048
37.457229 -19.160348 -20.370556
37.504099 -11.358593 -27.874429
37.438143 -19.060935 -22.334551
37.521911 -13.537257 -28.395220
28.903473 -11.920599 -26.953828
29.149271 -18.149185 -20.756549
5.433879 6.538631 28.349750
30.399443 19.582573 -30.237688
29.629882 20.025627 -29.816838
28.186713 19.748086 -29.438046
28.055754 19.120635 -28.261719
12.686430 -0.530040 6.320931
28.715316 21.053922 -28.920073
36.748899 10.059993 -24.757564
37.537935 11.869797 -17.014472
37.468611 18.456095 -23.948297
-30.907309 17.548549 -2.776434
37.446825 13.283434 -17.884740
12.656669 17.878425 -7.767677
35.732719 17.600328 -20.172171
33.897485 18.097457 -20.958797
12.628247 18.689221 -7.795774
4.081995 1.043304 18.017499
6.044461 3.460086 18.958680
34.805056 18.095264 -20.966075
34.883766 18.115998 -24.628636
36.130983 22.610218 -26.482179
32.524530 18.307610 -21.438889
33.590287 17.808676 -25.184960
29.083756 -23.448298 -17.686951
28.866412 -9.005173 -32.082580
31.503906 16.126750 -26.700594
28.251883 12.206318 -31.323912
33.743082 -5.873078 -32.049969
30.019010 10.906792 -32.157216
33.755680 -23.464031 -15.161057
34.483371 -10.349635 -20.319028
34.577032 -11.563295 -19.132475
36.216070 -11.105791 -19.488157
36.268477 -10.583480 -19.975191
36.263298 -15.715001 -18.682710
36.110426 -10.178825 -24.561918
14.537598 2.645243 9.011509
8.741185 -23.383073 -6.672200
35.895718 -11.768838 -26.644278
36.124890 -17.839550 -20.339823
29.659403 -10.231575 -25.075962
37.476496 18.646489 -26.963931
29.730006 -16.752047 -19.178523
28.105709 -19.912167 -22.656983
28.166319 -13.736044 -28.339858
-13.671245 -4.228841 -7.776656
-18.447865 0.308328 -7.722511
13.383212 -18.638980 -7.712030
37.531166 3.896887 -13.556717
37.555475 -4.874372 -5.028687
37.514859 5.569235 -13.758570
37.480500 -4.796603 -3.095085
29.694550 -18.508672 -23.073535
29.568173 -14.348059 -27.147224
2.879736 23.347272 1.144929
28.092927 11.055717 -30.121736
32.129823 -18.260818 -21.538632
32.478281 -12.475289 -26.910796
37.453912 19.933254 -28.950602
37.128808 17.688599 -20.166267
37.468108 12.116293 -30.188921
4.098231 6.996304 26.645468
35.002124 18.401810 -23.685619
28.286004 -22.543744 -24.673084
28.121867 -15.782077 -31.383513
25.997994 2.196581 13.234904
32.482440 23.383950 -13.888769
7.360129 2.718075 31.527157
28.107866 11.095035 -15.259464
25.599851 -13.515839 -7.766611
20.855619 18.799364 -7.761543
35.579585 13.875492 -27.239785
37.527006 7.588521 -0.021859
37.510428 8.845099 -0.959921
37.517561 0.396199 -7.136810
37.563853 1.713967 -8.580725
28.056093 -17.573300 -10.494699
28.116984 -1.545995 -26.479811
29.448713 17.785369 -20.311603
37.551145 -20.795394 -17.650821
37.508075 -8.438234 -29.189115
29.171301 23.456766 -17.879121
37.496655 -17.490739 -2.642861
37.513119 6.460483 -26.319112
37.560842 -1.450533 -26.822603
37.497924 3.105819 -22.398792
37.491321 -17.574474 -10.215964
37.482523 -13.714143 -5.730857
28.112525 -17.096868 -9.421571
28.282179 -0.421200 -25.845064
-31.354349 17.120613 -0.995150
28.157145 18.763392 -9.428658
28.171340 -20.327821 -18.451993
28.126260 -9.768695 -29.226495
28.069942 6.124358 -9.825643
37.499867 21.858133 -7.307285
28.184303 -1.484597 -23.366954
28.123270 -14.988831 -10.202011
37.458385 8.084452 -8.413638
37.454597 0.741236 -0.473068
28.021451 -6.039394 -9.543940
28.108125 -0.133049 -14.637166
28.458158 23.187439 -16.055643
29.764308 23.432153 -17.214447
10.927187 -23.350481 0.820332
37.553122 3.756350 -7.609641
37.473977 1.112364 -4.823976
28.127432 15.834940 -9.369372
28.116052 11.252869 -13.771253
28.156658 16.578245 -9.022257
37.458819 14.309855 -1.704539
37.519811 -5.704172 -30.764699
37.471448 -21.885577 -14.572845
37.527483 7.025251 -18.030354
37.471291 -9.334892 -1.956977
28.110078 -6.028038 -21.289284
-18.411237 12.458381 -7.746122
28.148505 -12.693588 -14.632728
-1.329092 -4.431024 -7.744796
37.469348 15.327360 -14.138818
18.029703 23.418219 0.621588
37.529580 -6.993531 -5.726892
37.476873 2.929054 -15.766012
30.971533 23.400805 -13.351631
31.416072 23.426441 -19.296506
4.828432 -0.987224 29.787833
30.077208 23.402321 -15.413949
37.459402 10.056053 -10.553505
37.458667 -1.562551 1.059930
37.523030 7.428970 -25.368434
37.505152 -16.505796 -1.829137
28.136539 -21.674539 -15.940757
28.097671 -6.941648 -30.103816
28.202272 -0.396374 -22.570472
28.149191 15.394015 -15.342950
28.138950 -13.883034 -9.487805
28.049592 -9.636117 -8.467611
28.089668 0.571476 -18.498209
-17.928989 0.448223 7.198244
27.985805 5.499503 -8.198542
28.186188 3.388598 -10.628506
37.487503 4.907648 -14.171328
37.468220 -5.489958 -3.885169
17.097630 16.355806 1.615762
34.892539 -23.420490 -20.169907
34.819818 -11.545249 -32.141969
28.089072 -22.069396 -11.083748
28.145907 -2.195124 -31.365509
32.920353 -1.590341 -32.103838
-7.434743 -12.576065 8.210739
32.894034 -23.426876 -10.292125
-6.185203 2.383863 18.657484
28.092078 0.003194 -18.553222
27.728386 -11.556573 5.138722
28.072540 -10.115014 -8.740549
28.108402 16.026761 -18.282830
30.890432 23.459306 -10.745947
32.283374 -23.425520 -9.584935
32.236620 -1.247829 -32.091743
19.985622 14.976822 12.576956
29.708048 -23.476989 -11.540517
29.846639 -2.758607 -32.119640
37.493440 13.623318 -5.989590
28.128846 8.195618 -24.113152
37.480621 1.213816 -22.607660
37.462857 -13.756770 -7.844427
37.490572 -12.927072 -4.983823
37.492520 4.115914 -21.546244
18.186129 15.005951 6.842369
28.366601 15.442546 -18.544585
28.089135 -7.594481 -24.734750
28.135625 -16.250028 -16.840448
37.473850 -0.896363 0.788904
37.455650 9.488914 -9.862374
37.527747 21.416264 -15.899692
10.449427 6.397509 9.501779
10.418085 -11.770327 27.279564
37.179864 23.314672 -16.082808
37.524422 21.960560 -15.959447
36.088666 23.425601 -12.546336
37.462171 -7.757029 -1.835225
37.531059 5.861145 -17.206369
27.803566 -2.141626 5.114256
28.140132 13.838270 -11.254373
28.116369 11.533418 -16.325921
28.155394 13.291258 -12.848082
22.540993 -23.464322 -6.175172
4.695860 -7.063566 10.903867
5.344160 -7.185736 10.557598
37.466557 20.964237 -10.951892
37.441427 19.940010 -13.676860
37.544422 -8.832584 -20.391887
37.564727 -11.334068 -17.200103
4.497553 -13.619127 17.222925
37.534048 -10.972601 -17.954815
37.490634 15.129098 -8.671096
37.439292 19.280988 -13.575735
37.550137 -9.654759 -19.547670
36.366075 2.531043 2.812331
37.476981 22.526039 -9.409290
37.149351 12.751725 -31.970006
28.142784 -9.645253 -26.391348
28.105841 -17.561133 -18.529368
32.934005 23.414238 -19.379113
37.198277 23.256974 -23.006607
37.478014 19.532320 -6.339426
37.517647 17.971190 -9.917819
37.530039 3.631701 -28.509623
37.426227 -20.121000 -5.026080
37.496272 -16.252897 -5.327626
37.473956 3.193089 -25.384575
-6.408176 -6.486132 16.529502
5.860478 14.589338 14.077477
8.626679 15.008340 11.110064
37.520641 15.995226 -16.454576
37.498204 -14.679357 -11.962839
37.448978 -3.239642 -23.509178
37.477618 3.342350 -24.034714
37.518807 -15.535334 -5.526459
28.104646 17.550141 -14.521632
28.123569 5.426635 -14.754735
37.521704 -3.257741 -8.527898
37.478611 0.346127 -12.040384
37.543276 -9.365892 -30.281306
37.514403 -21.622510 -18.277502
37.480454 -5.365192 -1.746992
37.530417 6.923478 -14.542889
-10.250290 -5.221951 13.398685
33.410038 -23.453733 -14.701201
33.207694 -6.127705 -32.056750
37.499759 -5.356523 -25.946303
33.115537 -3.748631 -32.091582
33.115080 -23.449218 -13.024834
37.513177 -17.293482 -13.973298
37.062803 -9.201961 -31.985938
37.315665 -23.293779 -17.756352
36.203297 -23.458684 -10.859171
36.155698 -2.625501 -32.077023
37.550755 -1.093524 -30.270402
37.527165 -21.766093 -9.819261
11.013028 5.564330 8.296467
37.545112 -22.222839 -7.725806
37.546924 0.656203 -31.001759
37.503903 -22.865943 -5.330865
37.354637 3.235681 -31.665088
37.529831 -14.470537 -3.482612
37.497004 5.844320 -23.005032
32.075010 -10.271775 -20.528839
32.304261 -11.462349 -19.093447
37.492967 13.972410 -13.738698
36.924977 12.521772 -27.026658
37.483554 20.516875 -19.318166
5.277792 14.941149 6.808030
7.948754 3.304615 4.712499
36.829867 23.560263 -16.769197
37.548591 21.620607 -17.796287
37.540991 21.615415 -16.976217
36.962492 23.357253 -18.244920
3.173554 6.325412 11.948542
37.541682 -12.888674 -2.072298
37.593740 6.747248 -21.907687
28.170944 18.059345 -8.897358
28.086680 -3.261838 -8.435960
28.106244 0.585882 -12.551658
26.923433 4.408150 -7.692858
33.537156 21.804770 -27.915849
28.090766 -19.198906 -27.471828
28.118890 -18.516788 -28.314803
27.958300 1.247967 -8.118636
32.087046 22.267185 -27.218764
27.502529 0.391374 -7.734818
28.029770 1.667717 -8.174136
15.805144 -12.909276 23.359173
18.077930 -12.772886 20.985677
28.147931 3.480625 -18.956024
28.095330 2.226539 -10.049400
28.957128 -11.423700 -18.971626
29.324961 -10.843317 -19.646824
37.524575 1.471689 -6.747148
37.537408 2.268004 -7.140107
13.367868 17.690266 1.634116
12.701793 -11.813260 26.528157
28.128390 -9.016711 -13.775147
28.133810 -5.142563 -17.712510
28.151207 20.046858 -20.462843
2.966317 -12.218420 19.021007
21.045875 -11.389756 18.115641
1.405044 -11.271643 19.244189
37.418030 18.241390 -20.257452
37.503516 16.018301 -12.532869
33.942789 23.392989 -22.702430
31.693015 -11.666961 -32.174696
19.566084 -6.644421 18.985414
31.832426 -23.421039 -20.264564
13.985417 -6.373455 25.166188
33.501453 -14.417169 -32.071275
33.363291 -23.410597 -22.886184
-22.366999 20.980896 1.574922
37.369419 -3.970059 1.600451
-24.040045 22.759956 1.603822
37.443751 10.442876 -12.698232
37.475670 0.424054 -19.958321
37.448121 -10.808211 -8.696076
-37.515702 -4.489299 0.598823
28.148914 9.298035 -18.269572
-18.561230 -23.443524 0.344205
37.460439 -16.551622 -10.067483
37.496552 -1.123100 -25.287535
37.505958 -1.505567 -25.820653
37.546747 7.804753 -16.616003
37.528085 -7.613303 -1.022977
37.475922 -16.973809 -10.559603
28.113903 -15.028173 -14.723184
28.104805 -6.154892 -23.715215
28.097049 -9.167433 -23.469242
28.112861 -0.126974 -14.382992
28.019806 -5.868035 -9.184893
7.219134 23.472186 -3.277206
28.326978 -15.321992 -18.228465
18.131580 -15.040952 4.947536
28.057745 -7.177517 -21.815050
28.121324 17.622535 -11.300821
28.122557 -12.722012 -16.152082
28.457175 -9.706346 -23.081495
28.330560 -14.186342 -18.251040
28.202074 -14.223190 -17.605306
28.076630 -8.708666 -23.131250
37.485507 13.694076 -9.956867
37.472020 19.026298 -14.820505
30.269976 22.934333 -25.552594
37.493680 -8.975846 -11.038064
37.481895 -2.860315 -18.149596
37.503526 0.800379 -17.213494
37.537337 -7.909089 -8.053513
20.793859 -10.911839 18.397276
28.142463 -9.979987 -14.866650
28.065847 -6.243430 -18.927300
13.111499 -11.477105 26.105330
-14.774422 -23.431917 -2.733726
-37.508391 -0.520377 -2.715058
37.503593 17.065018 -15.801965
-10.862415 12.573193 4.496975
37.037593 22.677862 -26.347454
37.234483 22.472351 -26.556156
37.399545 18.995490 -23.313877
37.496238 -0.308505 -22.334194
37.479175 -13.453732 -9.200515
28.122392 -6.622582 -12.866484
28.087420 -3.880081 -15.335885
28.107837 -3.039027 -15.653219
28.122692 -8.112282 -13.061800
28.120947 -7.072999 -11.396843
28.132033 -3.998157 -17.122885
28.123553 3.874823 -20.364486
37.470843 18.181924 -11.879439
28.113589 7.084476 -14.612917
9.385048 -13.963618 20.655197
34.407567 -5.760743 -32.042169
34.442270 -23.462874 -14.268398
37.536520 -5.358899 -30.209909
37.462689 -20.990873 -14.638386
37.475678 -21.684178 -14.376571
37.520115 -6.504266 -29.125127
37.500483 -3.461291 -31.656483
37.533733 0.925143 -26.138992
32.868391 9.714596 -21.948711
37.491961 -17.627614 -7.738111
37.524754 -22.598278 -12.503474
12.926216 14.951837 13.663785
28.147078 -19.869219 -19.173013
28.163426 -8.281204 -30.718812
31.598806 -10.703637 -32.148899
31.391722 -23.433360 -19.082858
28.174503 -22.235010 -17.255520
28.130251 -10.258746 -28.647656
28.129349 -7.118889 -29.824352
28.143622 -20.882214 -16.191670
37.557410 14.900644 -11.833436
12.110408 -15.010667 9.645843
37.505859 14.867269 -10.060038
37.468333 -2.740549 -9.422613
37.499732 -0.447282 -11.563892
37.526728 -4.888755 -7.650761
37.532621 1.941049 -13.973401
18.020909 -21.932115 1.607995
-16.802181 13.268087 1.598767
37.553292 -7.184979 -26.035093
37.541835 -17.378064 -15.933298
37.514552 -20.271679 -9.753156
37.557981 -1.215544 -28.763264
37.502633 -0.992018 -11.197511
37.483236 -2.319206 -10.232856
37.523028 3.124037 -9.428490
37.407824 -0.612192 -5.770053
28.116290 -20.400830 -9.297592
28.111566 -0.492159 -29.331244
-6.765311 2.543613 18.030731
28.114606 7.282293 -21.585149
28.154397 3.885637 -25.997373
28.164103 -22.207256 -16.604799
28.137458 -7.717876 -30.805723
28.619983 -23.413774 -20.979608
28.693757 -12.195224 -32.245353
28.108987 -1.680505 -19.879759
28.133511 -11.228670 -10.651822
28.131822 9.985971 -17.250200
-11.712919 -0.083428 13.353432
37.544168 -1.530027 -27.962324
37.537895 -19.318869 -10.148927
37.504347 -14.311417 -4.962710
37.482050 3.990316 -23.096734
28.150183 3.078190 -11.946047
28.143947 17.073954 -10.168856
37.539797 22.091872 -18.762607
35.219970 17.820157 -25.107386
9.289925 -12.955509 23.753251
37.520181 9.271738 -18.160375
37.433687 -9.363325 0.483736
28.102949 -3.554167 -27.142223
28.094262 -18.219296 -12.708402
37.464645 6.480288 -24.397712
25.848570 -12.559051 11.245385
37.522946 -15.377304 -3.116689
33.335592 14.794791 -18.369043
33.202746 -9.335082 6.019746
28.041270 -21.899796 -11.866069
28.120423 -3.326774 -30.799276
28.111498 4.851872 -15.769722
28.088880 -19.830420 -25.238439
28.135148 -16.433194 -29.066132
37.535941 6.198621 -9.891804
37.506289 -1.025867 -2.751017
34.240654 1.008089 -32.104179
33.856120 -23.437130 -8.113363
28.174155 -10.922630 -28.213685
28.100980 -19.308382 -19.750151
33.139653 23.404633 -15.286054
37.464776 2.733086 -16.636910
37.513476 -7.949619 -6.599727
37.539677 22.744909 -2.045013
37.479665 3.844929 -2.863206
37.471686 5.649761 -4.738738
28.115217 -0.051162 -19.160621
-6.207142 -14.494384 2.960979
-24.243021 16.087551 -0.517501
28.128285 -14.855342 -13.214828
28.001837 -10.562030 -8.541908
28.080602 -4.057602 -23.278032
37.462282 1.723832 -2.046653
37.500582 6.621991 -6.879345
28.153755 -16.968855 -14.965475
28.108741 -6.262280 -25.860666
35.228535 23.432112 -22.602337
28.167211 -21.377948 -18.521109
28.140108 -10.003040 -30.369587
28.122166 6.307644 -11.137735
36.166214 -10.372730 -32.154160
35.897876 -23.414498 -18.970642
28.112685 -3.855353 -15.952601
28.170016 -8.375783 -11.551554
28.144922 -7.193100 -12.774844
28.119318 -2.851271 -17.008390
33.188518 -5.186668 -32.070297
33.318360 -23.463490 -14.173616
28.078626 22.054303 -9.954842
28.126606 -21.895608 -8.926422
28.120487 -0.585762 -31.091191
28.060388 -4.529591 -10.413209
28.143411 -1.477913 -13.043595
37.476328 8.770289 -9.498981
37.516942 -0.609023 -0.155835
28.106433 8.654995 -31.249522
28.202296 0.023031 -21.855652
28.027965 -13.344455 -8.891104
30.759256 -16.770169 -19.254490
30.496688 -10.337859 -25.239605
28.163164 18.649481 -16.453699
26.284082 2.816493 12.828137
28.351794 2.437958 -31.751599
29.383050 0.745365 -32.199647
28.336975 -23.400393 -6.365961
24.573048 23.414157 -5.822696
29.461768 -23.394787 -7.338735
8.704212 2.685486 30.396744
6.929901 2.680037 31.498055
24.839989 2.737877 14.301687
28.134377 15.265561 -9.356993
28.084607 -6.713405 -22.536766
28.116448 -13.789610 -15.394816
28.106575 6.020332 -26.910760
28.173201 -19.960102 -17.820214
28.146188 -8.851198 -28.721220
31.212349 -23.464041 -17.675850
31.475294 -8.562483 -32.100318
37.470248 21.005062 -20.998670
-7.942783 14.537926 1.884987
28.094854 22.811472 -9.053716
24.749483 -23.432069 -3.228362
31.588732 11.665401 -18.955062
28.710423 12.356761 -18.566048
37.501695 -4.279610 -2.078103
37.511630 6.768931 -13.274000
-33.260977 21.908931 -3.894657
37.492470 -1.136140 -6.760746
37.460119 2.071206 -10.000158
35.153342 20.747124 -29.241067
28.067496 17.225629 -26.721171
30.589346 1.353480 7.888590
28.135473 13.858120 -29.793931
37.071697 -14.267662 -31.889552
37.190143 -23.240182 -23.080725
37.386023 -23.302146 -16.962621
37.273187 -8.213239 -31.828737
37.519007 15.494523 -12.448030
29.960977 -23.410580 -20.520871
30.316461 -11.584744 -32.283803
28.277264 23.105689 -23.084968
-32.148592 -15.914973 -1.453476
-30.374499 -17.922118 -1.722151
32.372643 -10.595116 -25.570338
32.399244 -16.719149 -19.300868
13.105350 8.909477 26.019535
37.498519 -1.241353 -7.627598
20.692103 8.666880 18.387419
37.490806 1.015925 -10.103688
37.509362 -1.308913 -8.867569
-33.165002 21.934597 -6.171007
37.529586 0.248357 -9.958378
26.207437 12.247396 12.835661
31.598801 23.168830 -25.111309
28.253348 8.925487 -20.247468
15.320435 -7.421785 23.844794
18.640311 -7.300922 20.403505
-21.755393 8.522767 1.633825
32.827566 13.078067 -18.550456
37.521776 -8.723617 -16.392788
37.491579 -7.649874 -17.499499
37.496960 -4.428867 -16.712390
10.402773 -5.006355 -7.736461
37.501551 -7.576231 -13.447476
37.502532 -6.564011 -16.690040
37.482102 -7.762860 -15.153992
28.124032 -8.354309 -13.648962
28.128185 -5.225629 -17.220708
28.114933 -12.632724 -9.671823
28.188303 2.854796 -24.789018
28.186821 -0.770564 -21.744625
28.113441 5.402867 -27.377468
35.079578 -4.330036 -32.101187
35.191189 -23.444619 -13.434442
34.511185 -6.046943 -32.033265
34.665096 -23.452958 -14.933529
37.530647 -21.293444 -17.060391
37.538526 -8.133335 -30.456026
37.521749 -6.766365 -28.246237
37.495680 -19.401306 -15.496813
37.520036 -8.532404 -27.100831
37.520835 -18.560478 -17.129232
37.548086 -1.750248 -29.141416
37.518133 -20.519198 -10.208138
28.250860 -12.260342 -27.750331
28.104302 -19.439848 -21.091000
28.467964 -13.211400 -27.505052
28.179366 -19.332962 -21.959052
28.157868 -11.171287 -14.498396
28.728536 -14.833611 5.966498
28.083810 -5.597002 -20.394577
32.920217 -17.217337 -25.801384
32.721002 -16.773228 -26.270043
20.497216 -14.886636 18.297799
28.567074 18.602296 -22.752307
28.120912 6.023646 -23.111443
37.527938 -3.324082 -2.211497
37.537725 6.972955 -12.117378
34.512678 -23.454682 -17.461648
34.108948 -8.619184 -32.103264
28.220515 17.649732 -25.435042
28.131352 12.458039 -29.947175
-14.156806 4.018257 10.183319
-18.437880 3.962945 5.898879
28.101991 15.043674 -10.080265
37.468827 3.362522 1.468264
37.506175 10.535452 -5.148694
28.133361 10.486467 -12.659531
37.507640 1.488490 -9.883336
37.505701 -1.031544 -7.338749
28.161217 2.724069 -22.500258
28.137812 -1.252183 -26.561100
28.120497 -17.582288 -9.908358
28.550618 12.757437 -18.495787
19.795944 23.425516 0.677689
28.155293 12.984460 -17.495785
30.122712 -23.429404 -8.504656
30.206283 -0.063880 -32.241310
28.108778 -3.318200 -25.152817
28.052552 -16.600497 -12.288306
11.605438 -2.204913 27.542001
28.096149 12.617432 -8.691223
21.477608 13.404035 17.606315
28.108119 17.088008 -11.559764
28.237960 12.411073 5.478971
28.660592 11.161135 -19.407678
37.510487 18.330903 -10.851814
37.478269 14.709796 -14.299639
37.509540 5.333892 -1.682964
37.484089 9.317973 -5.263797
37.448836 3.285048 0.467941
37.453535 7.289339 -3.247627
37.145077 -13.719919 -31.885080
37.577865 -18.817307 -18.209106
37.523177 3.945177 -14.098029
37.556845 -1.224391 -0.753393
37.500561 7.878878 -9.889130
37.363256 -23.232297 -22.921427
37.526135 -5.520013 -4.990736
37.497657 -9.407638 -27.587936
28.118379 -5.169669 -25.756424
28.124935 -17.265887 -13.555214
33.604661 -23.431019 -11.450882
33.273860 -2.853869 -32.088854
28.107743 -6.381693 -29.238963
28.119587 -20.494061 -15.432860
28.105935 8.757031 -13.749960
28.122522 5.083819 -25.400444
5.869904 -13.792343 18.160251
32.818859 -12.158413 -26.752216
32.921936 -17.978996 -20.673050
28.225427 17.338344 -26.352893
28.152865 22.097724 -20.592698
28.106085 -1.437745 -18.688557
28.137416 -9.806001 -10.379389
37.361354 4.505853 -30.861695
37.446696 -22.022070 -4.157399
12.949318 -6.576734 26.230174
28.156406 20.131329 -15.471505
20.942153 -7.251026 18.203188
37.517330 8.976444 -2.915173
37.518073 5.950334 -0.226956
37.513016 14.537008 -8.837604
28.116976 15.765265 -15.506769
28.124021 -2.554850 -24.112498
28.120660 -15.408361 -11.398986
28.144209 6.565859 -16.723429
28.107029 16.303588 -10.274962
27.988057 19.610286 -8.158070
-18.290018 8.319089 3.324209
13.578354 15.037035 4.855222
28.128327 14.840720 -13.433319
37.493905 18.477340 -15.121126
33.902637 12.122825 -18.708700
-4.301794 23.473498 -6.128506
-19.779888 -12.776337 -7.732263
-26.757710 -5.448302 -7.714110
-11.504218 23.448967 1.102158
28.125651 12.581407 -13.908190
37.510854 6.331402 -0.579657
37.504079 8.473328 -2.881744
28.149410 20.993667 -16.199407
32.595438 23.442575 -17.565154
28.136705 -18.993160 -25.452682
28.084386 -4.219617 -10.953036
28.153509 -2.309223 -13.313059
28.220917 -16.702928 -27.628346
5.807016 23.476052 -1.006581
28.097591 -4.983287 -11.710923
28.155308 -2.490231 -13.800749
24.103915 -10.533475 15.075221
33.105744 -5.503149 6.020038
28.124584 7.156213 -12.346492
34.228088 -3.912300 -32.102667
33.698916 -23.442915 -12.312188
31.940748 23.421990 -20.471046
35.778518 23.486578 -18.132657
37.516487 4.155252 -15.216205
37.504995 -6.609861 -4.665362
31.737284 1.186926 -32.144056
31.694294 -23.453388 -7.469640
13.955899 12.134947 25.129203
19.724668 12.118687 19.404213
27.961118 -0.483759 5.269419
28.135772 14.414419 -9.445895
28.179218 22.104841 -17.276576
37.432249 4.720307 -29.703185
37.503899 -20.327115 -19.739622
37.447704 -21.151342 -3.659454
37.484377 -11.106326 -28.899467
32.765535 17.763877 -25.195893
37.428980 2.262111 0.508824
37.538807 -14.747993 -30.700906
37.537429 -15.382813 -16.708628
37.433535 9.378823 -6.368842
37.532424 -0.009385 -1.338997
37.494965 7.133632 -8.778888
37.472889 -22.138246 -23.858953
37.549737 -8.039711 -24.367068
-24.702020 11.193627 -6.079047
4.626619 -5.032574 15.991024
7.238790 -5.844224 5.701878
28.090764 -2.935859 -9.817827
28.121853 -1.241232 -11.522188
28.349799 22.943128 -15.494969
23.083250 -3.256095 16.050384
10.537016 -3.142186 28.616621
22.953496 20.255177 -7.766248
37.475651 1.361926 -2.669776
37.496166 5.811651 -7.656625
37.489652 -18.585960 -27.768640
37.571151 0.762639 -8.105853
37.568818 0.921596 -7.432368
37.484679 -19.241323 -27.481876
37.373114 16.997347 -18.046017
12.154069 -15.049437 5.940994
19.698439 14.981886 3.776205
15.002265 15.006045 8.751821
37.522255 18.774610 -10.097812
37.493802 13.981001 -14.847974
27.913401 -9.567273 -7.909517
28.093075 1.144302 -18.639785
33.481976 -12.788138 -32.113196
33.608877 -23.434296 -21.131940
37.509093 -1.246494 -19.174169
37.499507 -13.783948 -13.393876
37.443122 -10.516197 -9.875983
37.473886 -4.263792 -22.334957
37.460481 -3.993290 -24.767796
37.499743 -15.822912 -13.277113
29.520031 -6.540566 -32.150499
29.912241 -23.638499 -15.670457
14.270273 -6.329254 22.989360
-37.040585 16.642288 -2.125135
2.084303 -23.468566 -1.919650
29.563244 -23.500088 -9.613224
37.508555 -7.955509 -12.024846
37.489680 -3.460878 -17.050729
29.850505 -0.491510 -32.235123
28.100678 -7.637289 -16.991241
-30.235646 -18.146946 1.103040
-32.066416 -15.983392 0.919688
28.106558 -8.322601 -16.315468
-8.556588 11.407884 9.087358
37.492199 2.868389 -3.486928
37.501807 3.278019 -4.037361
37.504517 4.801981 -5.832112
37.492319 5.781240 -6.092072
-24.749167 -16.998174 -0.601954
28.130978 -9.561691 -26.030529
28.142703 -17.290341 -17.703712
-31.138814 -10.765696 -0.896000
32.272448 -16.986789 -19.501188
32.436466 -10.344112 -25.164874
37.519449 -7.128764 -20.446907
37.514838 -11.800903 -16.015726
37.490180 -2.679646 -20.220208
37.501649 -11.634434 -11.424199
37.498524 -12.773517 -14.811520
37.518919 -6.064067 -21.562360
33.087687 -2.997077 6.006558
28.131655 7.375520 -14.830019
28.104681 -9.318422 -30.862647
28.189666 -22.103330 -17.925427
-24.903289 -23.463598 -2.051370
-37.512249 -10.311543 -1.755510
37.479855 -3.272393 -31.138266
37.510188 -22.411492 -11.868931
30.302293 -9.813028 -32.157138
30.016382 -23.450182 -18.592543
28.110223 -15.018641 -28.746335
-23.766399 -14.975596 -0.766734
31.119254 -23.363958 -23.656185
28.217714 -19.643650 -23.581535
30.681927 -15.172319 -32.011296
36.188619 -5.075870 2.987454
37.498981 15.011736 -9.408092
37.522614 -6.558100 -7.532028
37.471465 1.015053 -15.461341
37.448312 -1.411212 -13.333427
37.493465 -4.395453 -9.741049
37.535766 2.043862 -14.383157
37.546526 -5.760353 -7.020635
28.149611 -12.700800 -12.095519
28.118603 17.719173 -15.802153
28.120932 -2.663082 -21.951550
37.503945 8.979304 -19.200864
37.460820 -10.527797 0.268306
37.511486 15.421455 -5.336992
33.450777 23.441184 -9.388341
13.151048 -15.026292 7.317377
37.524030 12.267786 -8.186228
28.003186 15.589691 -18.196816
28.114811 -15.511969 -13.840168
28.103109 -4.990452 -24.199186
28.242791 -9.443771 -23.049919
28.250723 -14.346898 -18.014992
28.081847 11.664852 -8.772983
31.023975 23.404274 -19.352081
28.108521 16.475110 -13.659192
37.504635 20.637642 -15.026497
6.515434 -6.213713 15.932418
28.078361 -8.352828 -25.875276
28.190526 -16.816567 -17.132576
28.311924 18.579960 -20.540346
31.361565 23.413828 -15.756220
-11.763822 12.999335 2.435221
14.112060 -6.513895 13.457729
37.431926 -14.841427 -9.273325
37.482288 -0.454888 -23.547411
28.110408 -0.198743 -12.046885
28.089252 -3.669972 -9.177888
27.807609 4.060958 -7.854421
35.972629 -2.402411 -32.076562
37.496675 14.511157 -8.434602
36.246938 -23.446274 -11.450366
28.142966 8.425000 -10.048642
28.242216 -1.577241 -31.900532
28.148042 -23.183697 -10.514883
37.499300 12.049346 -5.550058
37.454376 -8.723251 -4.374569
37.511267 4.806225 -17.777202
37.520115 17.546860 -5.957676
27.192235 -1.794758 4.693799
37.516088 19.496650 0.848840
-24.420234 -16.562874 -0.282193
37.501951 21.385193 -3.859348
37.541777 -0.073789 -26.565695
37.518863 -15.130667 -5.974899
37.484171 2.582871 -23.772536
37.495313 -17.716935 -8.704224
37.524614 -15.669884 -6.257317
37.488717 2.613883 -23.522198
34.833482 10.866234 -25.701785
-37.388354 15.019642 -3.936958
28.300790 10.071784 -20.343325
28.250620 -21.844480 -24.041262
0.556794 -23.448835 -3.927071
28.107131 -15.344344 -29.916890
5.297787 2.405651 18.847399
29.033972 -18.262976 -24.256817
28.824945 -15.614603 -26.990401
37.524417 1.961692 -30.102841
37.486864 -21.512573 -7.410815
34.459629 15.959584 -26.730382
28.110600 18.270124 -29.689206
34.843748 -16.028962 -18.798006
35.448098 -10.266806 -24.707830
35.187126 -9.789533 -23.491316
35.251675 -14.860334 -18.298227
33.877676 13.701301 -32.124036
33.227231 14.369588 -32.074654
34.354164 13.745676 -32.116144
6.997782 -12.086072 23.271789
33.438582 -23.460573 -4.750818
33.825065 3.889471 -32.115268
22.182272 14.636856 16.750640
28.657565 12.325388 -27.177207
29.576129 12.249984 -26.875076
-1.490871 -14.516809 7.569377
7.601165 -14.448558 16.723590
35.906732 -10.967674 -25.929134
36.310768 -17.499743 -19.825850
35.654115 -12.880623 -27.126645
36.282421 -18.341445 -21.633753
37.523701 -19.458410 -19.261169
37.465702 -10.649552 -28.016107
11.805566 -5.821776 21.811663
35.671776 -16.344087 -19.031524
0.654112 8.215775 22.307351
28.124785 -22.233116 -13.831944
28.124000 -4.796282 -31.128225
30.249810 23.547383 0.563181
28.102784 2.124040 -30.723129
28.166964 9.148171 -23.487233
29.500176 -23.456664 -3.807007
19.037535 0.074849 -7.778974
29.455291 5.184788 -32.112930
31.818172 15.746131 -31.934833
37.505344 -18.098792 0.803454
37.541630 9.016512 -26.916401
37.532454 -19.845967 -0.630603
37.492095 8.352236 -28.557396
22.976379 -15.028114 11.046535
